-986.013,-194.651,-3.70559
-985.218,-195.613,-3.7018
-986.344,-194.254,-3.70718
-985.527,-195.24,-3.70327
-984.728,-196.2,-3.69942
-983.945,-197.143,-3.69566
-983.178,-198.065,-3.69197
-989.325,-190.688,-3.72162
-988.425,-191.776,-3.71732
-987.547,-192.831,-3.71308
-986.691,-193.843,-3.70888
-985.85,-194.852,-3.70483
-985.029,-195.836,-3.70086
-984.223,-196.804,-3.69698
-983.435,-197.754,-3.6932
-982.662,-198.685,-3.68949
-981.906,-199.597,-3.68586
-981.165,-200.488,-3.6823
-999.21,-178.783,-3.76907
-998.054,-180.177,-3.76354
-996.928,-181.545,-3.75818
-992.694,-186.618,-3.73773
-991.699,-187.815,-3.73294
-990.726,-188.991,-3.72829
-989.776,-190.14,-3.72375
-988.847,-191.263,-3.71931
-987.94,-192.352,-3.71495
-987.056,-193.405,-3.71064
-986.19,-194.445,-3.70647
-985.343,-195.464,-3.7024
-984.514,-196.46,-3.69841
-983.703,-197.436,-3.69451
-982.908,-198.393,-3.6907
-982.131,-199.33,-3.68697
-981.37,-200.247,-3.68331
-980.624,-201.146,-3.67973
-979.892,-202.033,-3.67624
-1000.03,-177.801,-3.77308
-998.831,-179.242,-3.76727
-997.661,-180.652,-3.76165
-996.521,-182.026,-3.75618
-995.409,-183.366,-3.75085
-994.325,-184.665,-3.74561
-993.269,-185.936,-3.74054
-992.239,-187.159,-3.73551
-991.233,-188.376,-3.7307
-990.25,-189.564,-3.72601
-989.291,-190.725,-3.72143
-988.354,-191.857,-3.71695
-987.44,-192.951,-3.71253
-986.546,-194.025,-3.70823
-985.673,-195.076,-3.70402
-984.819,-196.102,-3.69991
-983.984,-197.106,-3.6959
-983.167,-198.09,-3.69197
-982.367,-199.053,-3.68813
-981.584,-199.996,-3.68437
-980.818,-200.919,-3.6807
-980.067,-201.824,-3.67709
-979.331,-202.714,-3.67358
-1002.2,-175.2,-3.78349
-1000.91,-176.745,-3.77728
-999.658,-178.249,-3.77125
-998.44,-179.716,-3.7654
-997.254,-181.145,-3.75971
-996.099,-182.536,-3.75417
-994.974,-183.891,-3.74877
-993.878,-185.211,-3.7435
-992.81,-186.481,-3.7383
-991.769,-187.732,-3.73328
-990.752,-188.958,-3.72841
-989.76,-190.154,-3.72365
-988.791,-191.327,-3.71903
-987.845,-192.472,-3.71451
-986.922,-193.581,-3.71007
-986.021,-194.666,-3.70574
-985.14,-195.725,-3.7015
-984.279,-196.76,-3.69736
-983.438,-197.772,-3.69331
-982.614,-198.763,-3.68936
-981.809,-199.732,-3.68549
-981.021,-200.681,-3.68171
-980.25,-201.611,-3.678
-979.495,-202.521,-3.67438
-978.756,-203.412,-3.67084
-978.029,-204.293,-3.66738
-1003.19,-174.011,-3.78827
-1001.84,-175.627,-3.7818
-1000.54,-177.197,-3.77552
-999.269,-178.725,-3.76942
-998.034,-180.212,-3.76349
-996.833,-181.66,-3.75772
-995.663,-183.069,-3.75211
-994.524,-184.441,-3.74664
-993.416,-185.766,-3.74127
-992.335,-187.06,-3.73605
-991.282,-188.325,-3.73098
-990.255,-189.563,-3.72605
-989.253,-190.771,-3.72125
-988.276,-191.949,-3.71656
-987.321,-193.104,-3.712
-986.388,-194.233,-3.70755
-985.479,-195.326,-3.70317
-984.591,-196.395,-3.6989
-983.723,-197.438,-3.69473
-982.875,-198.458,-3.69065
-982.046,-199.456,-3.68667
-981.235,-200.432,-3.68277
-980.442,-201.387,-3.67896
-979.666,-202.322,-3.67524
-978.906,-203.238,-3.6716
-978.163,-204.134,-3.66803
-977.433,-205.017,-3.66455
-1002.84,-174.434,-3.78665
-1001.48,-176.076,-3.78009
-1000.15,-177.671,-3.77372
-998.866,-179.219,-3.76752
-997.614,-180.727,-3.76151
-996.396,-182.194,-3.75567
-995.212,-183.621,-3.74998
-994.059,-185.01,-3.74444
-992.937,-186.347,-3.73899
-991.844,-187.659,-3.73373
-990.779,-188.938,-3.7286
-989.741,-190.191,-3.72363
-988.728,-191.414,-3.71878
-987.741,-192.607,-3.71406
-986.778,-193.769,-3.70944
-985.837,-194.907,-3.70495
-984.919,-196.011,-3.70054
-984.024,-197.087,-3.69623
-983.15,-198.137,-3.69202
-982.295,-199.165,-3.68791
-981.46,-200.17,-3.6839
-980.644,-201.153,-3.67997
-979.845,-202.114,-3.67614
-979.064,-203.055,-3.67239
-978.3,-203.976,-3.66873
-977.553,-204.878,-3.66514
-976.82,-205.763,-3.66164
-976.102,-206.633,-3.65822
-975.401,-207.474,-3.65484
-1002.49,-174.875,-3.78497
-1001.1,-176.543,-3.77831
-999.754,-178.162,-3.77185
-998.447,-179.734,-3.76556
-997.178,-181.262,-3.75946
-995.944,-182.749,-3.75354
-994.743,-184.194,-3.74778
-993.576,-185.601,-3.74217
-992.44,-186.96,-3.73668
-991.335,-188.287,-3.73135
-990.258,-189.58,-3.72617
-989.208,-190.848,-3.72114
-988.185,-192.083,-3.71625
-987.188,-193.284,-3.71146
-986.216,-194.457,-3.7068
-985.267,-195.604,-3.70226
-984.341,-196.719,-3.69782
-983.439,-197.804,-3.69347
-982.557,-198.863,-3.68923
-981.696,-199.9,-3.6851
-980.855,-200.912,-3.68105
-980.033,-201.9,-3.6771
-979.23,-202.867,-3.67324
-978.444,-203.813,-3.66947
-977.676,-204.74,-3.66578
-976.924,-205.647,-3.66218
-976.187,-206.539,-3.65866
-975.467,-207.407,-3.65521
-974.763,-208.252,-3.65182
-974.074,-209.079,-3.6485
-1003.57,-173.589,-3.79022
-1002.11,-175.334,-3.78323
-1000.7,-177.028,-3.77646
-999.338,-178.672,-3.76989
-998.012,-180.268,-3.76352
-996.725,-181.817,-3.75733
-995.474,-183.325,-3.75133
-994.258,-184.791,-3.7455
-993.075,-186.216,-3.73982
-991.925,-187.598,-3.73429
-990.807,-188.938,-3.72889
-989.718,-190.246,-3.72365
-988.657,-191.527,-3.71857
-987.624,-192.775,-3.71362
-986.617,-193.985,-3.70878
-985.636,-195.169,-3.70407
-984.678,-196.325,-3.69949
-983.744,-197.45,-3.69501
-982.834,-198.545,-3.69063
-981.945,-199.614,-3.68636
-981.078,-200.659,-3.68219
-980.231,-201.678,-3.67812
-979.403,-202.673,-3.67414
-978.595,-203.646,-3.67026
-977.805,-204.597,-3.66646
-977.032,-205.527,-3.66275
-976.276,-206.438,-3.65913
-975.536,-207.334,-3.65559
-974.813,-208.204,-3.65212
-974.106,-209.052,-3.64871
-973.415,-209.883,-3.64538
-972.738,-210.696,-3.64212
-1003.2,-174.037,-3.78852
-1001.72,-175.813,-3.78142
-1000.29,-177.533,-3.77453
-998.906,-179.202,-3.76786
-997.56,-180.824,-3.7614
-996.254,-182.398,-3.75514
-994.985,-183.926,-3.74905
-993.753,-185.41,-3.74313
-992.556,-186.853,-3.73739
-991.392,-188.255,-3.7318
-990.26,-189.612,-3.72634
-989.159,-190.936,-3.72104
-988.087,-192.23,-3.7159
-987.042,-193.49,-3.7109
-986.026,-194.71,-3.706
-985.035,-195.905,-3.70125
-984.069,-197.071,-3.69663
-983.127,-198.206,-3.69211
-982.21,-199.31,-3.6877
-981.314,-200.389,-3.6834
-980.44,-201.442,-3.6792
-979.587,-202.468,-3.6751
-978.754,-203.469,-3.67109
-977.94,-204.449,-3.66718
-977.145,-205.407,-3.66337
-976.368,-206.341,-3.65963
-975.609,-207.254,-3.65598
-974.866,-208.151,-3.65242
-974.14,-209.024,-3.64893
-973.431,-209.876,-3.64552
-972.737,-210.71,-3.64217
-972.057,-211.525,-3.6389
-971.392,-212.326,-3.6357
-1002.82,-174.514,-3.78681
-1001.32,-176.313,-3.77954
-999.865,-178.062,-3.77254
-998.456,-179.76,-3.76578
-997.09,-181.406,-3.75922
-995.764,-183.003,-3.75286
-994.478,-184.553,-3.74669
-993.229,-186.057,-3.74069
-992.016,-187.516,-3.73486
-990.838,-188.935,-3.7292
-989.693,-190.311,-3.72369
-988.579,-191.651,-3.71833
-987.495,-192.958,-3.71314
-986.44,-194.226,-3.70807
-985.414,-195.46,-3.70313
-984.415,-196.663,-3.69832
-983.44,-197.836,-3.69365
-982.491,-198.979,-3.68909
-981.565,-200.095,-3.68465
-980.661,-201.19,-3.68033
-979.78,-202.251,-3.67611
-978.922,-203.283,-3.67197
-978.084,-204.29,-3.66794
-977.265,-205.276,-3.66401
-976.465,-206.242,-3.66017
-975.684,-207.181,-3.65642
-974.922,-208.096,-3.65275
-974.176,-208.993,-3.64916
-973.447,-209.869,-3.64566
-972.735,-210.725,-3.64222
-972.038,-211.561,-3.63887
-971.357,-212.38,-3.63559
-970.689,-213.183,-3.63238
-1004.01,-173.1,-3.79254
-1002.43,-175.003,-3.78496
-1000.9,-176.837,-3.77759
-999.419,-178.617,-3.77048
-997.987,-180.342,-3.76361
-996.599,-182.014,-3.75695
-995.254,-183.634,-3.75049
-993.95,-185.205,-3.74423
-992.684,-186.729,-3.73815
-991.456,-188.204,-3.73223
-990.263,-189.636,-3.72649
-989.105,-191.025,-3.7209
-987.98,-192.376,-3.71547
-986.884,-193.696,-3.71021
-985.82,-194.974,-3.70509
-984.783,-196.221,-3.7001
-983.774,-197.438,-3.69526
-982.791,-198.621,-3.69055
-981.834,-199.773,-3.68595
-980.902,-200.896,-3.68147
-979.993,-201.991,-3.6771
-979.104,-203.065,-3.67286
-978.238,-204.115,-3.66873
-977.392,-205.138,-3.66469
-976.568,-206.131,-3.66073
-975.763,-207.1,-3.65688
-974.979,-208.043,-3.6531
-974.213,-208.962,-3.64941
-973.465,-209.86,-3.6458
-972.733,-210.74,-3.64228
-972.018,-211.598,-3.63883
-971.32,-212.437,-3.63547
-970.635,-213.26,-3.63218
-969.966,-214.065,-3.62896
-969.298,-214.892,-3.62586
-1005.29,-171.569,-3.79873
-1003.62,-173.575,-3.79074
-1002.01,-175.513,-3.78302
-1000.46,-177.386,-3.77556
-998.953,-179.196,-3.76833
-997.498,-180.95,-3.76135
-996.089,-182.647,-3.75458
-994.724,-184.292,-3.74803
-993.4,-185.885,-3.74168
-992.119,-187.413,-3.73545
-990.875,-188.906,-3.72945
-989.667,-190.358,-3.72364
-988.495,-191.764,-3.71799
-987.357,-193.134,-3.71252
-986.25,-194.463,-3.70719
-985.175,-195.758,-3.70202
-984.128,-197.019,-3.697
-983.109,-198.247,-3.69211
-982.118,-199.44,-3.68735
-981.154,-200.599,-3.68271
-980.214,-201.729,-3.67819
-979.298,-202.832,-3.6738
-978.404,-203.913,-3.66952
-977.532,-204.967,-3.66536
-976.682,-205.996,-3.66129
-975.849,-207.009,-3.65734
-975.041,-207.982,-3.65346
-974.253,-208.929,-3.64966
-973.483,-209.853,-3.64596
-972.732,-210.756,-3.64234
-971.997,-211.637,-3.6388
-971.28,-212.498,-3.63534
-970.579,-213.341,-3.63196
-969.893,-214.166,-3.62866
-969.222,-214.973,-3.62544
-968.565,-215.762,-3.62228
-967.903,-216.593,-3.61926
-1004.91,-172.03,-3.79702
-1003.22,-174.075,-3.78888
-1001.58,-176.049,-3.78101
-999.996,-177.956,-3.77341
-998.466,-179.799,-3.76607
-996.987,-181.584,-3.75899
-995.556,-183.305,-3.7521
-994.17,-184.974,-3.74545
-992.83,-186.564,-3.73889
-991.53,-188.126,-3.73264
-990.269,-189.644,-3.72658
-989.047,-191.114,-3.72071
-987.861,-192.535,-3.71498
-986.71,-193.919,-3.70944
-985.592,-195.265,-3.70407
-984.505,-196.573,-3.69885
-983.448,-197.846,-3.69377
-982.42,-199.085,-3.68884
-981.421,-200.287,-3.68404
-980.449,-201.455,-3.67936
-979.502,-202.596,-3.67481
-978.579,-203.708,-3.67039
-977.679,-204.797,-3.66608
-976.801,-205.86,-3.66189
-975.944,-206.897,-3.65781
-975.109,-207.909,-3.65383
-974.294,-208.893,-3.64994
-973.503,-209.844,-3.64612
-972.73,-210.772,-3.6424
-971.975,-211.678,-3.63876
-971.239,-212.562,-3.63521
-970.519,-213.426,-3.63174
-969.815,-214.272,-3.62836
-969.127,-215.099,-3.62505
-968.456,-215.905,-3.62181
-967.797,-216.7,-3.61865
-967.136,-217.525,-3.61562
-966.504,-218.289,-3.6126
-1004.53,-172.513,-3.79522
-1002.8,-174.6,-3.78692
-1001.13,-176.612,-3.77891
-999.514,-178.553,-3.77117
-997.957,-180.428,-3.7637
-996.453,-182.241,-3.75649
-994.999,-183.994,-3.74952
-993.593,-185.67,-3.74268
-992.233,-187.288,-3.73606
-990.916,-188.873,-3.72972
-989.639,-190.41,-3.72359
-988.401,-191.899,-3.71764
-987.202,-193.338,-3.71186
-986.038,-194.739,-3.70626
-984.907,-196.099,-3.70083
-983.81,-197.419,-3.69555
-982.743,-198.704,-3.69043
-981.706,-199.953,-3.68545
-980.699,-201.164,-3.6806
-979.718,-202.343,-3.67589
-978.763,-203.495,-3.67131
-977.834,-204.616,-3.66686
-976.928,-205.712,-3.66253
-976.044,-206.783,-3.65831
-975.182,-207.826,-3.65421
-974.342,-208.843,-3.6502
-973.523,-209.835,-3.64629
-972.727,-210.793,-3.64247
-971.951,-211.723,-3.63872
-971.195,-212.631,-3.63507
-970.456,-213.517,-3.63151
-969.734,-214.384,-3.62803
-969.03,-215.228,-3.62463
-968.342,-216.053,-3.62131
-967.669,-216.858,-3.61806
-967.005,-217.669,-3.61492
-966.351,-218.471,-3.61185
-965.713,-219.251,-3.60884
-1004.12,-173.021,-3.79334
-1002.35,-175.149,-3.78487
-1000.65,-177.201,-3.7767
-999.008,-179.178,-3.76882
-997.425,-181.087,-3.76123
-995.895,-182.93,-3.75389
-994.417,-184.71,-3.7468
-992.99,-186.405,-3.73983
-991.611,-188.048,-3.73312
-990.276,-189.652,-3.72669
-988.982,-191.208,-3.72047
-987.729,-192.717,-3.71445
-986.515,-194.176,-3.70861
-985.338,-195.592,-3.70295
-984.196,-196.967,-3.69746
-983.087,-198.3,-3.69213
-982.011,-199.594,-3.68695
-980.965,-200.853,-3.68193
-979.949,-202.075,-3.67704
-978.96,-203.266,-3.6723
-977.998,-204.427,-3.66769
-977.062,-205.556,-3.6632
-976.149,-206.662,-3.65885
-975.26,-207.738,-3.65461
-974.394,-208.786,-3.65047
-973.55,-209.808,-3.64645
-972.726,-210.808,-3.64253
-971.925,-211.774,-3.63869
-971.147,-212.708,-3.63493
-970.387,-213.619,-3.63127
-969.648,-214.504,-3.62769
-968.925,-215.368,-3.6242
-968.22,-216.214,-3.62079
-967.53,-217.04,-3.61746
-966.857,-217.846,-3.61421
-966.195,-218.647,-3.61104
-965.544,-219.44,-3.60796
-964.898,-220.241,-3.60498
-1003.69,-173.555,-3.79136
-1001.89,-175.726,-3.78271
-1000.15,-177.817,-3.77438
-998.478,-179.831,-3.76635
-996.866,-181.775,-3.75862
-995.31,-183.651,-3.75116
-993.809,-185.462,-3.74396
-992.361,-187.174,-3.73686
-990.961,-188.844,-3.73006
-989.607,-190.466,-3.72352
-988.297,-192.043,-3.71723
-987.029,-193.569,-3.71113
-985.8,-195.048,-3.70523
-984.609,-196.481,-3.6995
-983.455,-197.869,-3.69395
-982.335,-199.217,-3.68857
-981.249,-200.524,-3.68335
-980.195,-201.79,-3.67827
-979.17,-203.023,-3.67335
-978.174,-204.224,-3.66857
-977.205,-205.391,-3.66392
-976.263,-206.527,-3.65941
-975.344,-207.64,-3.65503
-974.45,-208.723,-3.65076
-973.579,-209.777,-3.64661
-972.73,-210.808,-3.64257
-971.902,-211.813,-3.63863
-971.096,-212.788,-3.63479
-970.316,-213.722,-3.63101
-969.555,-214.632,-3.62733
-968.814,-215.52,-3.62374
-968.09,-216.385,-3.62024
-967.384,-217.231,-3.61682
-966.692,-218.061,-3.61349
-966.016,-218.874,-3.61024
-965.356,-219.668,-3.60707
-964.706,-220.46,-3.60398
-964.073,-221.225,-3.60096
-1003.24,-174.11,-3.78923
-1001.4,-176.329,-3.78041
-999.626,-178.464,-3.77192
-997.922,-180.518,-3.76376
-996.28,-182.498,-3.75589
-994.698,-184.407,-3.7483
-993.171,-186.247,-3.74099
-991.702,-187.972,-3.73372
-990.282,-189.673,-3.72685
-988.909,-191.32,-3.72023
-987.581,-192.917,-3.71385
-986.297,-194.465,-3.70768
-985.054,-195.958,-3.7017
-983.85,-197.407,-3.69591
-982.684,-198.81,-3.69031
-981.554,-200.169,-3.68487
-980.457,-201.486,-3.67959
-979.393,-202.767,-3.67448
-978.361,-204.01,-3.66952
-977.357,-205.219,-3.6647
-976.382,-206.393,-3.66002
-975.434,-207.535,-3.65547
-974.51,-208.653,-3.65106
-973.611,-209.741,-3.64677
-972.735,-210.804,-3.6426
-971.881,-211.842,-3.63855
-971.049,-212.852,-3.6346
-970.239,-213.835,-3.63074
-969.457,-214.772,-3.62696
-968.694,-215.684,-3.62327
-967.951,-216.573,-3.61967
-967.226,-217.44,-3.61616
-966.519,-218.287,-3.61274
-965.826,-219.12,-3.60941
-965.149,-219.934,-3.60615
-964.489,-220.728,-3.60298
-963.844,-221.503,-3.59987
-963.208,-222.276,-3.59686
-962.589,-223.025,-3.5939
-1002.76,-174.699,-3.78701
-1000.88,-176.965,-3.778
-999.074,-179.143,-3.76934
-997.337,-181.24,-3.76103
-995.665,-183.258,-3.75302
-994.055,-185.2,-3.74531
-992.503,-187.071,-3.73787
-991.013,-188.808,-3.73043
-989.571,-190.539,-3.72348
-988.179,-192.212,-3.71678
-986.834,-193.832,-3.71032
-985.534,-195.393,-3.70406
-984.276,-196.908,-3.69802
-983.058,-198.374,-3.69218
-981.88,-199.792,-3.68651
-980.739,-201.163,-3.68102
-979.632,-202.494,-3.6757
-978.559,-203.787,-3.67054
-977.518,-205.039,-3.66554
-976.508,-206.253,-3.66068
-975.526,-207.436,-3.65597
-974.573,-208.584,-3.65139
-973.645,-209.705,-3.64695
-972.741,-210.799,-3.64264
-971.862,-211.864,-3.63845
-971.003,-212.91,-3.63438
-970.166,-213.929,-3.63042
-969.354,-214.915,-3.62655
-968.567,-215.859,-3.62276
-967.803,-216.773,-3.61906
-967.058,-217.664,-3.61546
-966.332,-218.532,-3.61194
-965.625,-219.378,-3.60852
-964.932,-220.212,-3.60518
-964.255,-221.025,-3.60193
-963.595,-221.817,-3.59875
-962.951,-222.591,-3.59565
-962.322,-223.346,-3.59262
-961.697,-224.113,-3.58968
-1002.26,-175.323,-3.78468
-1000.34,-177.637,-3.77546
-998.492,-179.861,-3.76663
-996.721,-181.999,-3.75815
-995.018,-184.054,-3.75
-993.379,-186.032,-3.74215
-991.801,-187.935,-3.73459
-990.289,-189.693,-3.72702
-988.826,-191.451,-3.71997
-987.414,-193.15,-3.71319
-986.051,-194.79,-3.70664
-984.735,-196.371,-3.7003
-983.462,-197.905,-3.69419
-982.231,-199.386,-3.68828
-981.04,-200.819,-3.68256
-979.888,-202.204,-3.67701
-978.772,-203.545,-3.67164
-977.69,-204.848,-3.66645
-976.641,-206.11,-3.6614
-975.625,-207.331,-3.6565
-974.636,-208.522,-3.65176
-973.677,-209.678,-3.64716
-972.744,-210.804,-3.64269
-971.837,-211.899,-3.63835
-970.955,-212.967,-3.63414
-970.092,-214.018,-3.63006
-969.253,-215.04,-3.62608
-968.437,-216.031,-3.62221
-967.646,-216.986,-3.61842
-966.88,-217.902,-3.61472
-966.134,-218.794,-3.61111
-965.408,-219.662,-3.60759
-964.7,-220.508,-3.60416
-964.008,-221.339,-3.60082
-963.333,-222.15,-3.59756
-962.673,-222.942,-3.59439
-962.03,-223.714,-3.59129
-961.402,-224.468,-3.58826
-960.776,-225.238,-3.58533
-960.17,-225.973,-3.58245
-1003.77,-173.521,-3.7921
-1001.72,-175.987,-3.78224
-999.761,-178.351,-3.77281
-997.879,-180.62,-3.76378
-996.072,-182.8,-3.75513
-994.337,-184.894,-3.74682
-992.669,-186.906,-3.73883
-991.07,-188.782,-3.73091
-989.529,-190.624,-3.72344
-988.044,-192.406,-3.71629
-986.612,-194.132,-3.70942
-985.231,-195.794,-3.70278
-983.898,-197.397,-3.69637
-982.611,-198.948,-3.69019
-981.367,-200.445,-3.68421
-980.164,-201.891,-3.67843
-979.001,-203.29,-3.67284
-977.876,-204.641,-3.66741
-976.786,-205.95,-3.66217
-975.729,-207.222,-3.65709
-974.704,-208.459,-3.65217
-973.707,-209.666,-3.64742
-972.742,-210.826,-3.64278
-971.805,-211.957,-3.63829
-970.896,-213.051,-3.63392
-970.011,-214.119,-3.62968
-969.147,-215.167,-3.62558
-968.305,-216.193,-3.62159
-967.488,-217.186,-3.61771
-966.692,-218.152,-3.61392
-965.924,-219.073,-3.61022
-965.177,-219.966,-3.6066
-964.451,-220.835,-3.60308
-963.743,-221.68,-3.59965
-963.051,-222.511,-3.59631
-962.376,-223.322,-3.59306
-961.717,-224.112,-3.58989
-961.075,-224.883,-3.58679
-960.446,-225.641,-3.58378
-959.826,-226.397,-3.58084
-959.22,-227.135,-3.57797
-1003.26,-174.161,-3.78973
-1001.16,-176.689,-3.77965
-999.153,-179.106,-3.77
-997.23,-181.424,-3.76078
-995.387,-183.648,-3.75195
-993.619,-185.781,-3.74348
-991.921,-187.83,-3.73534
-990.295,-189.737,-3.72729
-988.728,-191.618,-3.71974
-987.221,-193.431,-3.71249
-985.77,-195.167,-3.70547
-984.371,-196.848,-3.69874
-983.022,-198.473,-3.69226
-981.72,-200.04,-3.686
-980.463,-201.549,-3.67995
-979.249,-203.01,-3.67411
-978.074,-204.426,-3.66847
-976.938,-205.794,-3.66302
-975.838,-207.118,-3.65774
-974.774,-208.399,-3.65262
-973.742,-209.639,-3.64767
-972.743,-210.842,-3.64286
-971.773,-212.009,-3.63821
-970.832,-213.145,-3.63369
-969.917,-214.248,-3.62931
-969.029,-215.321,-3.62506
-968.164,-216.368,-3.62093
-967.322,-217.39,-3.61693
-966.502,-218.386,-3.61304
-965.703,-219.36,-3.60926
-964.934,-220.282,-3.60555
-964.186,-221.178,-3.60194
-963.459,-222.048,-3.59842
-962.751,-222.895,-3.59499
-962.06,-223.726,-3.59166
-961.385,-224.535,-3.58841
-960.728,-225.325,-3.58524
-960.086,-226.096,-3.58215
-959.459,-226.853,-3.57914
-958.844,-227.596,-3.57621
-958.241,-228.33,-3.57335
-1002.71,-174.842,-3.78722
-1000.56,-177.434,-3.7769
-998.51,-179.909,-3.76704
-996.544,-182.275,-3.75761
-994.663,-184.544,-3.74859
-992.861,-186.718,-3.73995
-991.131,-188.804,-3.73166
-989.478,-190.752,-3.72351
-987.887,-192.654,-3.71581
-986.356,-194.492,-3.70844
-984.884,-196.264,-3.70136
-983.466,-197.97,-3.69454
-982.1,-199.611,-3.68797
-980.784,-201.191,-3.68163
-979.517,-202.706,-3.67549
-978.291,-204.179,-3.66959
-977.104,-205.614,-3.66392
-975.958,-206.997,-3.65842
-974.849,-208.334,-3.65311
-973.777,-209.623,-3.64796
-972.74,-210.872,-3.64297
-971.735,-212.08,-3.63814
-970.761,-213.251,-3.63346
-969.816,-214.389,-3.62892
-968.901,-215.49,-3.62451
-968.008,-216.57,-3.62025
-967.141,-217.619,-3.61612
-966.299,-218.64,-3.6121
-965.479,-219.635,-3.6082
-964.679,-220.61,-3.60441
-963.909,-221.535,-3.60071
-963.161,-222.432,-3.5971
-962.433,-223.304,-3.59358
-961.725,-224.153,-3.59016
-961.034,-224.982,-3.58684
-960.362,-225.789,-3.58359
-959.707,-226.574,-3.58043
-959.068,-227.34,-3.57735
-958.444,-228.09,-3.57435
-957.829,-228.837,-3.57143
-957.23,-229.565,-3.56858
-999.93,-178.231,-3.77401
-997.826,-180.765,-3.76392
-995.817,-183.183,-3.75427
-993.897,-185.496,-3.74504
-992.058,-187.712,-3.73623
-990.297,-189.835,-3.72778
-988.614,-191.827,-3.71953
-986.999,-193.751,-3.71168
-985.445,-195.618,-3.7042
-983.952,-197.413,-3.69702
-982.516,-199.141,-3.69011
-981.133,-200.803,-3.68346
-979.802,-202.402,-3.67705
-978.528,-203.908,-3.67079
-977.289,-205.401,-3.66485
-976.092,-206.846,-3.65912
-974.933,-208.254,-3.65361
-973.817,-209.598,-3.64826
-972.738,-210.897,-3.64307
-971.695,-212.151,-3.63806
-970.685,-213.367,-3.6332
-969.706,-214.548,-3.62851
-968.758,-215.688,-3.62395
-967.838,-216.797,-3.61954
-966.947,-217.867,-3.61525
-966.079,-218.918,-3.61111
-965.235,-219.94,-3.60708
-964.416,-220.932,-3.60318
-963.614,-221.91,-3.59939
-962.844,-222.837,-3.59569
-962.098,-223.73,-3.59208
-961.37,-224.603,-3.58857
-960.663,-225.451,-3.58516
-959.975,-226.276,-3.58184
-959.305,-227.08,-3.5786
-958.652,-227.863,-3.57545
-958.016,-228.625,-3.57238
-957.395,-229.369,-3.56939
-956.786,-230.106,-3.56648
-956.192,-230.824,-3.56364
-955.612,-231.524,-3.56086
-997.099,-181.671,-3.76057
-995.045,-184.145,-3.75071
-993.083,-186.507,-3.74129
-991.208,-188.764,-3.73229
-989.415,-190.925,-3.72368
-987.697,-192.993,-3.71543
-986.061,-194.915,-3.70733
-984.484,-196.807,-3.69973
-982.972,-198.618,-3.69242
-981.517,-200.366,-3.68542
-980.12,-202.042,-3.67868
-978.781,-203.633,-3.67214
-977.488,-205.18,-3.66589
-976.238,-206.684,-3.65989
-975.032,-208.141,-3.65411
-973.865,-209.556,-3.64855
-972.74,-210.913,-3.64317
-971.655,-212.22,-3.63796
-970.606,-213.482,-3.63292
-969.591,-214.703,-3.62804
-968.609,-215.886,-3.62333
-967.657,-217.034,-3.61876
-966.734,-218.148,-3.61434
-965.841,-219.224,-3.61005
-964.974,-220.266,-3.60589
-964.132,-221.284,-3.60186
-963.311,-222.28,-3.59795
-962.51,-223.256,-3.59417
-961.738,-224.189,-3.59047
-960.994,-225.079,-3.58687
-960.27,-225.946,-3.58337
-959.563,-226.794,-3.57997
-958.877,-227.618,-3.57666
-958.209,-228.419,-3.57343
-957.559,-229.198,-3.5703
-956.926,-229.956,-3.56724
-956.308,-230.698,-3.56426
-955.703,-231.427,-3.56136
-955.116,-232.135,-3.55854
-954.542,-232.824,-3.55578
-998.532,-179.978,-3.7676
-996.325,-182.633,-3.75699
-994.223,-185.164,-3.7469
-992.219,-187.576,-3.73727
-990.307,-189.877,-3.72809
-988.48,-192.078,-3.71932
-986.739,-194.14,-3.71079
-985.07,-196.136,-3.70271
-983.472,-198.049,-3.69498
-981.938,-199.888,-3.68758
-980.466,-201.654,-3.68048
-979.053,-203.348,-3.67365
-977.702,-204.946,-3.66703
-976.396,-206.511,-3.66072
-975.136,-208.029,-3.65467
-973.919,-209.499,-3.64886
-972.745,-210.919,-3.64325
-971.613,-212.287,-3.63784
-970.521,-213.604,-3.6326
-969.467,-214.873,-3.62754
-968.448,-216.1,-3.62265
-967.463,-217.287,-3.61792
-966.509,-218.436,-3.61334
-965.585,-219.55,-3.60891
-964.691,-220.626,-3.60462
-963.825,-221.669,-3.60046
-962.984,-222.683,-3.59642
-962.164,-223.676,-3.59252
-960.59,-225.59,-3.58506
-959.847,-226.481,-3.58146
-959.127,-227.342,-3.57797
-958.424,-228.184,-3.57458
-957.74,-229.005,-3.57128
-957.075,-229.804,-3.56808
-956.427,-230.581,-3.56495
-955.798,-231.334,-3.56192
-955.183,-232.074,-3.55896
-954.582,-232.799,-3.55608
-953.998,-233.502,-3.55327
-953.428,-234.187,-3.55053
-1000.14,-178.082,-3.77555
-997.76,-180.944,-3.76407
-995.497,-183.662,-3.75317
-993.347,-186.25,-3.74284
-991.3,-188.712,-3.733
-989.349,-191.058,-3.72362
-987.488,-193.3,-3.71468
-985.719,-195.387,-3.70598
-984.023,-197.421,-3.69779
-982.4,-199.366,-3.68996
-980.846,-201.228,-3.68245
-979.357,-203.012,-3.67526
-977.929,-204.721,-3.66835
-976.568,-206.325,-3.66164
-975.248,-207.91,-3.65529
-973.977,-209.442,-3.6492
-972.752,-210.925,-3.64334
-971.57,-212.353,-3.6377
-970.432,-213.729,-3.63225
-969.335,-215.051,-3.627
-968.276,-216.328,-3.62192
-967.253,-217.56,-3.61701
-966.266,-218.75,-3.61227
-965.31,-219.9,-3.60769
-964.387,-221.011,-3.60325
-963.493,-222.087,-3.59895
-962.627,-223.129,-3.59479
-961.787,-224.141,-3.59076
-960.969,-225.132,-3.58686
-959.397,-227.047,-3.57942
-958.655,-227.939,-3.57585
-957.938,-228.796,-3.57237
-957.237,-229.639,-3.569
-956.557,-230.454,-3.56571
-955.896,-231.245,-3.56252
-955.254,-232.015,-3.55942
-954.629,-232.764,-3.5564
-954.018,-233.497,-3.55346
-953.422,-234.217,-3.5506
-952.841,-234.916,-3.54782
-996.932,-181.983,-3.7603
-994.612,-184.763,-3.74909
-992.411,-187.411,-3.73851
-990.319,-189.927,-3.72845
-988.329,-192.321,-3.71888
-986.432,-194.603,-3.70977
-984.636,-196.715,-3.70089
-982.912,-198.782,-3.69258
-981.266,-200.758,-3.68464
-979.691,-202.644,-3.67703
-978.185,-204.449,-3.66975
-976.745,-206.161,-3.66274
-975.37,-207.788,-3.65599
-974.039,-209.388,-3.64958
-972.758,-210.931,-3.64344
-971.525,-212.421,-3.63754
-970.335,-213.863,-3.63187
-969.191,-215.244,-3.6264
-968.09,-216.571,-3.62112
-967.028,-217.853,-3.61603
-966.003,-219.088,-3.61111
-965.014,-220.278,-3.60636
-964.059,-221.428,-3.60177
-963.136,-222.537,-3.59733
-962.243,-223.612,-3.59304
-961.378,-224.652,-3.58888
-960.54,-225.663,-3.58486
-959.724,-226.652,-3.58098
-958.155,-228.565,-3.57356
-957.417,-229.451,-3.57
-956.701,-230.309,-3.56655
-956.005,-231.145,-3.56319
-955.327,-231.959,-3.55993
-954.672,-232.744,-3.55676
-954.035,-233.507,-3.55368
-953.415,-234.248,-3.55068
-952.813,-234.968,-3.54777
-952.222,-235.681,-3.54493
-951.645,-236.378,-3.54217
-993.663,-185.945,-3.74471
-991.408,-188.66,-3.73389
-989.269,-191.233,-3.72361
-987.238,-193.675,-3.71384
-985.307,-195.995,-3.70454
-983.482,-198.132,-3.69548
-981.733,-200.227,-3.68703
-980.063,-202.232,-3.67898
-978.468,-204.145,-3.67128
-976.945,-205.968,-3.66391
-975.499,-207.667,-3.65677
-974.105,-209.332,-3.65001
-972.764,-210.943,-3.64355
-971.474,-212.499,-3.63737
-970.232,-213.999,-3.63144
-969.037,-215.446,-3.62574
-967.886,-216.84,-3.62025
-966.784,-218.165,-3.61495
-965.719,-219.45,-3.60985
-964.693,-220.686,-3.60492
-963.705,-221.875,-3.60017
-962.75,-223.024,-3.59558
-961.829,-224.131,-3.59115
-960.935,-225.208,-3.58686
-960.074,-226.244,-3.58272
-959.236,-227.257,-3.57872
-958.421,-228.246,-3.57484
-956.859,-230.152,-3.56746
-956.125,-231.033,-3.56392
-955.412,-231.889,-3.56049
-954.721,-232.718,-3.55716
-954.051,-233.522,-3.55392
-953.399,-234.303,-3.55078
-952.77,-235.053,-3.54772
-952.157,-235.787,-3.54475
-951.56,-236.5,-3.54186
-950.98,-237.194,-3.53906
-950.407,-237.889,-3.53633
-992.642,-187.217,-3.74001
-990.332,-189.998,-3.72892
-988.145,-192.63,-3.71841
-986.073,-195.12,-3.70844
-984.105,-197.486,-3.69897
-982.253,-199.642,-3.68972
-980.479,-201.762,-3.68112
-978.787,-203.791,-3.67295
-977.172,-205.726,-3.66516
-975.63,-207.578,-3.65773
-974.173,-209.287,-3.65051
-972.768,-210.964,-3.64369
-971.416,-212.591,-3.6372
-970.118,-214.157,-3.63098
-968.869,-215.668,-3.62502
-967.67,-217.117,-3.61929
-966.517,-218.512,-3.61378
-965.409,-219.849,-3.60847
-964.346,-221.125,-3.60336
-963.322,-222.356,-3.59843
-962.335,-223.543,-3.59367
-961.381,-224.69,-3.58909
-960.461,-225.798,-3.58467
-959.57,-226.871,-3.5804
-958.71,-227.908,-3.57628
-957.875,-228.92,-3.57229
-957.062,-229.908,-3.56844
-955.508,-231.806,-3.56111
-954.781,-232.675,-3.55759
-954.075,-233.523,-3.55418
-953.39,-234.344,-3.55088
-952.726,-235.139,-3.54767
-952.08,-235.915,-3.54456
-951.455,-236.663,-3.54153
-950.85,-237.385,-3.5386
-950.26,-238.09,-3.53574
-949.688,-238.774,-3.53296
-991.54,-188.588,-3.73494
-989.174,-191.435,-3.72356
-986.938,-194.125,-3.71282
-984.823,-196.67,-3.70264
-982.819,-199.076,-3.69299
-980.937,-201.27,-3.6836
-979.141,-203.402,-3.67483
-977.427,-205.455,-3.66655
-975.793,-207.414,-3.65867
-974.235,-209.284,-3.65116
-972.763,-211.017,-3.6439
-971.346,-212.712,-3.63703
-969.986,-214.346,-3.63049
-968.682,-215.917,-3.62423
-967.43,-217.429,-3.61824
-966.226,-218.885,-3.61249
-965.072,-220.279,-3.60697
-963.963,-221.616,-3.60166
-962.901,-222.889,-3.59654
-961.878,-224.119,-3.59161
-960.893,-225.302,-3.58687
-959.943,-226.446,-3.5823
-959.026,-227.548,-3.57789
-958.14,-228.617,-3.57364
-957.281,-229.655,-3.56954
-956.45,-230.662,-3.56558
-955.646,-231.635,-3.56175
-954.102,-233.523,-3.55447
-953.381,-234.387,-3.55098
-952.672,-235.248,-3.54762
-951.995,-236.06,-3.54434
-951.339,-236.844,-3.54117
-950.705,-237.599,-3.53809
-950.09,-238.332,-3.5351
-949.493,-239.044,-3.5322
-948.911,-239.739,-3.52938
-948.343,-240.422,-3.52664
-987.924,-192.988,-3.71779
-985.639,-195.734,-3.70678
-983.48,-198.33,-3.6964
-981.438,-200.787,-3.68659
-979.503,-203.115,-3.67729
-977.71,-205.156,-3.66811
-975.974,-207.236,-3.65973
-974.323,-209.216,-3.65176
-972.749,-211.107,-3.64418
-971.252,-212.898,-3.63694
-969.823,-214.611,-3.63003
-968.463,-216.229,-3.62341
-967.151,-217.813,-3.61713
-965.899,-219.317,-3.6111
-964.698,-220.761,-3.60532
-963.548,-222.142,-3.59978
-962.44,-223.476,-3.59447
-961.381,-224.747,-3.58936
-960.361,-225.972,-3.58444
-959.379,-227.151,-3.57972
-958.434,-228.288,-3.57517
-957.521,-229.385,-3.57078
-956.638,-230.452,-3.56656
-955.785,-231.484,-3.56249
-954.961,-232.482,-3.55856
-954.165,-233.444,-3.55475
-953.38,-234.412,-3.55109
-952.632,-235.321,-3.54754
-951.909,-236.198,-3.5441
-951.214,-237.035,-3.54076
-950.547,-237.832,-3.53753
-949.903,-238.599,-3.53439
-949.278,-239.342,-3.53135
-948.672,-240.063,-3.52841
-948.081,-240.771,-3.52555
-947.508,-241.455,-3.52277
-946.952,-242.12,-3.52007
-986.572,-194.666,-3.71153
-984.235,-197.475,-3.70028
-982.033,-200.121,-3.68968
-979.954,-202.619,-3.67968
-977.989,-204.982,-3.67023
-976.175,-207.045,-3.66093
-974.42,-209.144,-3.65243
-972.753,-211.142,-3.64438
-971.169,-213.036,-3.63672
-969.662,-214.84,-3.62943
-968.225,-216.56,-3.62248
-966.854,-218.204,-3.61586
-965.544,-219.775,-3.60954
-964.29,-221.282,-3.6035
-963.09,-222.723,-3.59772
-961.939,-224.108,-3.59219
-960.836,-225.434,-3.58688
-959.777,-226.706,-3.58179
-958.762,-227.926,-3.5769
-957.785,-229.098,-3.5722
-956.845,-230.23,-3.56767
-955.939,-231.321,-3.56332
-955.063,-232.378,-3.55913
-954.217,-233.401,-3.55509
-953.401,-234.387,-3.5512
-952.613,-235.342,-3.54744
-951.84,-236.289,-3.54381
-950.384,-238.059,-3.5369
-949.701,-238.879,-3.53361
-949.038,-239.676,-3.53042
-948.404,-240.431,-3.52733
-947.79,-241.161,-3.52434
-947.194,-241.871,-3.52144
-946.615,-242.562,-3.51863
-946.053,-243.233,-3.5159
-982.712,-199.367,-3.69325
-980.467,-202.062,-3.68243
-978.354,-204.595,-3.67223
-976.36,-206.992,-3.66263
-974.527,-209.074,-3.65322
-972.754,-211.191,-3.64462
-971.072,-213.205,-3.63649
-969.478,-215.11,-3.62877
-967.964,-216.918,-3.62143
-966.522,-218.642,-3.61445
-965.15,-220.283,-3.60781
-963.836,-221.862,-3.60149
-962.583,-223.368,-3.59545
-961.384,-224.808,-3.58968
-960.236,-226.189,-3.58416
-959.136,-227.513,-3.57888
-958.083,-228.778,-3.57381
-957.075,-229.988,-3.56894
-956.105,-231.153,-3.56428
-955.172,-232.275,-3.55979
-954.274,-233.357,-3.55548
-953.407,-234.404,-3.55133
-952.57,-235.415,-3.54733
-951.764,-236.389,-3.54348
-950.986,-237.33,-3.53977
-950.226,-238.261,-3.53618
-949.489,-239.164,-3.53272
-948.793,-239.999,-3.52937
-948.11,-240.831,-3.52613
-947.465,-241.6,-3.523
-946.841,-242.342,-3.51996
-946.239,-243.058,-3.51702
-945.653,-243.756,-3.51418
-945.084,-244.435,-3.51142
-944.531,-245.097,-3.50874
-976.621,-206.742,-3.66419
-974.601,-209.161,-3.65443
-972.748,-211.272,-3.64494
-970.962,-213.394,-3.63623
-969.267,-215.421,-3.62804
-967.666,-217.332,-3.62026
-966.146,-219.147,-3.61289
-964.702,-220.874,-3.6059
-963.328,-222.518,-3.59925
-962.016,-224.094,-3.59293
-960.766,-225.592,-3.5869
-959.572,-227.026,-3.58115
-958.432,-228.395,-3.57565
-957.337,-229.714,-3.5704
-956.292,-230.969,-3.56537
-955.292,-232.168,-3.56055
-954.333,-233.32,-3.55592
-953.409,-234.431,-3.55148
-952.522,-235.498,-3.54722
-951.666,-236.531,-3.54312
-950.842,-237.527,-3.53918
-950.047,-238.489,-3.53538
-949.28,-239.415,-3.53172
-948.533,-240.329,-3.52819
-947.786,-241.267,-3.52479
-947.107,-242.075,-3.5215
-946.453,-242.856,-3.51832
-945.821,-243.607,-3.51524
-945.21,-244.334,-3.51227
-944.618,-245.041,-3.50939
-944.043,-245.728,-3.5066
-943.486,-246.394,-3.50391
-970.829,-213.636,-3.63598
-969.031,-215.77,-3.6272
-967.328,-217.803,-3.61894
-965.716,-219.732,-3.61114
-964.192,-221.555,-3.60376
-962.747,-223.28,-3.59676
-961.374,-224.924,-3.59012
-960.069,-226.488,-3.58381
-958.825,-227.978,-3.57781
-957.64,-229.399,-3.57209
-956.509,-230.755,-3.56663
-955.429,-232.05,-3.56142
-954.395,-233.289,-3.55643
-953.408,-234.472,-3.55166
-952.459,-235.613,-3.54709
-951.549,-236.705,-3.54272
-950.675,-237.757,-3.53851
-949.833,-238.771,-3.53448
-949.022,-239.752,-3.5306
-948.241,-240.695,-3.52686
-947.488,-241.606,-3.52327
-946.757,-242.496,-3.51981
-944.717,-244.977,-3.51013
-944.1,-245.711,-3.50713
-943.502,-246.426,-3.50422
-942.923,-247.116,-3.50142
-968.735,-216.242,-3.62634
-966.943,-218.338,-3.61743
-965.234,-220.378,-3.60914
-963.62,-222.309,-3.60133
-962.095,-224.131,-3.59395
-960.662,-225.833,-3.58695
-959.297,-227.463,-3.58033
-958,-229.016,-3.57405
-956.765,-230.496,-3.56809
-955.59,-231.907,-3.56243
-954.466,-233.26,-3.55703
-953.398,-234.539,-3.55188
-952.382,-235.754,-3.54696
-951.409,-236.919,-3.54225
-950.477,-238.037,-3.53776
-949.584,-239.108,-3.53345
-948.725,-240.141,-3.52932
-947.9,-241.135,-3.52536
-947.105,-242.095,-3.52156
-946.34,-243.019,-3.5179
-945.603,-243.911,-3.51439
-944.889,-244.781,-3.511
-942.896,-247.206,-3.50156
-942.293,-247.926,-3.49863
-941.711,-248.62,-3.49581
-964.678,-221.125,-3.60684
-962.968,-223.166,-3.59854
-961.361,-225.079,-3.59072
-959.855,-226.863,-3.58334
-958.422,-228.573,-3.57639
-957.068,-230.191,-3.56983
-955.782,-231.729,-3.56361
-954.564,-233.186,-3.55771
-953.405,-234.573,-3.55211
-952.298,-235.904,-3.54679
-951.248,-237.165,-3.54172
-950.242,-238.373,-3.53688
-949.288,-239.514,-3.53227
-948.375,-240.609,-3.52786
-947.503,-241.654,-3.52364
-946.662,-242.665,-3.5196
-945.856,-243.635,-3.51573
-945.084,-244.564,-3.51202
-944.34,-245.462,-3.50846
-943.62,-246.335,-3.50503
-940.988,-249.539,-3.49256
-940.405,-250.233,-3.48973
-939.843,-250.902,-3.48699
-962.217,-224.151,-3.59532
-960.512,-226.183,-3.58703
-958.915,-228.082,-3.57924
-957.418,-229.857,-3.57192
-956.006,-231.534,-3.56503
-954.67,-233.125,-3.55853
-953.402,-234.641,-3.5524
-952.2,-236.082,-3.54659
-951.062,-237.443,-3.54109
-949.977,-238.745,-3.53586
-948.947,-239.982,-3.53089
-947.967,-241.156,-3.52616
-947.033,-242.274,-3.52165
-946.144,-243.338,-3.51735
-945.294,-244.355,-3.51324
-944.479,-245.334,-3.50931
-943.698,-246.272,-3.50555
-942.946,-247.178,-3.50194
-942.226,-248.045,-3.49849
-941.526,-248.896,-3.49517
-940.826,-249.772,-3.49197
-938.419,-252.665,-3.48038
-959.528,-227.46,-3.58274
-957.841,-229.461,-3.57449
-956.258,-231.343,-3.56678
-954.783,-233.087,-3.55954
-953.391,-234.74,-3.55275
-952.079,-236.301,-3.54636
-950.838,-237.782,-3.54034
-949.663,-239.187,-3.53465
-948.551,-240.517,-3.52926
-947.495,-241.781,-3.52416
-946.49,-242.987,-3.51932
-945.538,-244.128,-3.51472
-944.634,-245.208,-3.51034
-943.773,-246.238,-3.50617
-942.951,-247.221,-3.50219
-942.164,-248.165,-3.49839
-941.411,-249.065,-3.49476
-940.688,-249.936,-3.49128
-939.988,-250.784,-3.48795
-938.652,-252.423,-3.48168
-956.583,-231.077,-3.56894
-954.923,-233.04,-3.56079
-953.375,-234.868,-3.55318
-951.921,-236.594,-3.54609
-950.559,-238.211,-3.53944
-949.278,-239.735,-3.53319
-948.07,-241.173,-3.52732
-946.93,-242.533,-3.52179
-945.852,-243.82,-3.51656
-944.833,-245.037,-3.51162
-943.866,-246.193,-3.50693
-942.945,-247.296,-3.50249
-942.076,-248.334,-3.49827
-941.246,-249.326,-3.49426
-940.457,-250.269,-3.49043
-939.704,-251.17,-3.48679
-938.985,-252.031,-3.48331
-938.29,-252.868,-3.47998
-937.629,-253.663,-3.4768
-936.955,-254.507,-3.47373
-936.353,-255.227,-3.47081
-953.323,-235.103,-3.55376
-951.724,-236.96,-3.54575
-950.215,-238.739,-3.53832
-948.803,-240.412,-3.53141
-947.479,-241.986,-3.52495
-946.236,-243.464,-3.5189
-945.073,-244.846,-3.51323
-943.981,-246.141,-3.50789
-942.949,-247.369,-3.50287
-941.971,-248.535,-3.49812
-941.047,-249.638,-3.49363
-940.169,-250.688,-3.48939
-939.337,-251.682,-3.48536
-938.548,-252.625,-3.48153
-937.797,-253.523,-3.4779
-937.081,-254.38,-3.47443
-936.398,-255.196,-3.47113
-935.73,-256.011,-3.46797
-935.082,-256.807,-3.46494
-934.49,-257.512,-3.46207
-948.17,-241.346,-3.52918
-946.736,-243.009,-3.522
-945.379,-244.613,-3.51534
-944.113,-246.112,-3.50914
-942.929,-247.515,-3.50335
-941.822,-248.826,-3.49793
-940.783,-250.058,-3.49284
-939.805,-251.216,-3.48807
-938.883,-252.313,-3.48357
-938.01,-253.352,-3.47932
-937.185,-254.335,-3.47531
-936.401,-255.272,-3.47151
-935.656,-256.165,-3.46791
-934.952,-257.005,-3.4645
-934.277,-257.814,-3.46125
-933.618,-258.619,-3.45814
-933.016,-259.333,-3.4552
-931.879,-260.695,-3.4497
-941.6,-249.263,-3.49766
-940.409,-250.665,-3.49179
-939.299,-251.974,-3.48633
-938.262,-253.199,-3.48124
-937.295,-254.337,-3.47648
-936.388,-255.406,-3.47201
-935.533,-256.417,-3.46782
-934.726,-257.374,-3.46387
-933.959,-258.288,-3.46014
-933.228,-259.165,-3.45662
-932.537,-259.993,-3.45328
-934.337,-258.042,-3.46295
-933.457,-259.072,-3.45859
-932.637,-260.032,-3.45451
-931.86,-260.947,-3.45069
-931.128,-261.813,-3.4471
-929.234,-264.293,-3.43895
-928.516,-265.126,-3.43536
-927.845,-265.905,-3.432
-927.217,-266.635,-3.42886
-924.066,-270.574,-3.41441
-923.517,-271.202,-3.41162
