-498.99,-834.979,-1.6633
-506.183,-819.692,-1.63285
-494.525,-838.99,-1.70526
-498.633,-817.761,-1.66211
-498.487,-791.15,-1.60802
-500.171,-769.015,-1.56303
-500.271,-745.86,-1.51597
-509.027,-981.408,-2.03611
-517.026,-958.49,-1.98856
-515.545,-920.346,-1.90942
-494.264,-850.842,-1.76523
-493.77,-820.683,-1.70265
-490.038,-787.33,-1.63346
-490.354,-762.424,-1.58179
-493.227,-742.925,-1.54133
-495.911,-724.332,-1.50276
-498.417,-706.582,-1.46593
-499.013,-687.214,-1.42575
-460.423,-1448.81,-3.06949
-470.031,-1386.6,-2.9377
-493.085,-1369.04,-2.9005
-473.922,-1065.2,-2.25677
-474.904,-1018.89,-2.15866
-484.419,-994.117,-2.10617
-492.834,-969.244,-2.05347
-502.183,-948.125,-2.00873
-501.113,-909.716,-1.92736
-490.16,-856.875,-1.81541
-489.648,-825.409,-1.74874
-490.173,-797.801,-1.69025
-490.544,-771.792,-1.63515
-491.949,-749.034,-1.58693
-494.6,-729.538,-1.54562
-497.039,-710.918,-1.50618
-499.315,-693.168,-1.46857
-501.764,-676.666,-1.43361
-508.351,-666.506,-1.41208
-461.029,-1521.41,-3.29308
-456.959,-1407.44,-3.0464
-463.591,-1338.63,-2.89745
-469.981,-1277.25,-2.7646
-477.414,-1225.37,-2.6523
-473.552,-1151.49,-2.49238
-476.886,-1101.61,-2.38443
-460.293,-1012.65,-2.19187
-469.796,-986.576,-2.13544
-479.892,-963.96,-2.08648
-489.04,-941.406,-2.03767
-496.973,-918.409,-1.98789
-491.565,-873.476,-1.89063
-492.525,-842.767,-1.82416
-493.234,-813.839,-1.76155
-493.756,-786.607,-1.7026
-494.138,-760.975,-1.64712
-495.697,-738.75,-1.59902
-498.015,-719.011,-1.5563
-500.402,-700.564,-1.51637
-502.606,-682.954,-1.47825
-505.053,-666.671,-1.44301
-510.534,-655.187,-1.41815
-444.198,-1673.16,-3.70167
-443.03,-1540.4,-3.40794
-445.708,-1439.01,-3.18364
-453.493,-1366.54,-3.02329
-460.694,-1301.47,-2.87934
-467.086,-1241.91,-2.74757
-472.805,-1187.27,-2.6267
-476.695,-1134.04,-2.50892
-462.082,-1044.31,-2.31041
-462.5,-995.481,-2.20238
-468.032,-961.598,-2.12742
-473.84,-931.202,-2.06017
-484.649,-912.76,-2.01937
-493.756,-892.714,-1.97502
-494.645,-859.924,-1.90248
-496.214,-830.703,-1.83783
-497.072,-802.419,-1.77525
-497.576,-775.535,-1.71578
-498.216,-750.648,-1.66072
-499.824,-728.778,-1.61233
-501.464,-708.319,-1.56707
-503.849,-690.123,-1.52681
-506.157,-672.893,-1.4887
-508.762,-657.032,-1.4536
-511.198,-641.839,-1.41999
-519.535,-634.677,-1.40415
-431.928,-1735.59,-3.92664
-437.633,-1611.96,-3.64696
-443.289,-1507.2,-3.40992
-448.712,-1416.66,-3.20509
-456.608,-1345.48,-3.04406
-463.829,-1281.34,-2.89893
-470.265,-1222.7,-2.76627
-475.887,-1168.57,-2.64382
-467.304,-1087.1,-2.45949
-464.545,-1026.65,-2.32273
-464.97,-978.655,-2.21414
-470.56,-945.402,-2.13891
-475.693,-914.161,-2.06823
-480.391,-884.723,-2.00163
-488.57,-863.796,-1.95428
-498.61,-847.64,-1.91773
-499.535,-817.761,-1.85013
-500.876,-790.672,-1.78884
-501.617,-764.536,-1.72971
-502.518,-740.379,-1.67506
-504.074,-718.714,-1.62604
-505.457,-698.165,-1.57955
-507.523,-679.774,-1.53794
-510.069,-663.092,-1.5002
-512.685,-647.449,-1.46481
-515.128,-632.464,-1.43091
-520.965,-622.344,-1.40801
-435.149,-1708.97,-3.95592
-443.23,-1595.64,-3.6936
-448.746,-1491.23,-3.45191
-453.189,-1398.42,-3.23707
-460.719,-1326.88,-3.07146
-467.66,-1262.69,-2.92288
-473.834,-1204.1,-2.78726
-478.978,-1149.55,-2.66099
-466.832,-1061.43,-2.45701
-467.066,-1008.87,-2.33533
-467.541,-961.803,-2.22638
-475.134,-932.995,-2.1597
-483.046,-907.29,-2.1002
-490.162,-882.295,-2.04234
-495.466,-856.169,-1.98186
-503.888,-837.232,-1.93803
-505.663,-809.064,-1.87282
-505.768,-780.331,-1.80631
-505.723,-753.355,-1.74387
-507.036,-730.133,-1.69011
-508.55,-708.691,-1.64048
-509.88,-688.34,-1.59337
-511.458,-669.547,-1.54987
-514.217,-653.36,-1.5124
-516.793,-637.871,-1.47655
-519.527,-623.434,-1.44313
-524.045,-611.859,-1.41633
-530.58,-603.187,-1.39626
-529.879,-586.944,-1.35866
-439.247,-1685.13,-3.99317
-446.942,-1571.76,-3.72453
-454.535,-1475.5,-3.49643
-459.508,-1385.1,-3.2822
-465.492,-1309.59,-3.10328
-472.381,-1245.91,-2.95238
-478.571,-1187.99,-2.81512
-484.735,-1136.44,-2.69297
-478.081,-1061.85,-2.51621
-478.036,-1008.66,-2.39018
-478.529,-961.621,-2.27871
-486.372,-932.954,-2.21078
-493.969,-906.33,-2.14769
-498.038,-875.72,-2.07516
-503.029,-849.116,-2.01211
-510.864,-829.174,-1.96486
-513.786,-803.031,-1.90291
-513.83,-774.418,-1.8351
-513.7,-747.524,-1.77137
-515.694,-725.412,-1.71898
-516.756,-703.457,-1.66695
-517.676,-682.687,-1.61773
-519.039,-663.742,-1.57284
-520.753,-646.347,-1.53162
-523.793,-631.547,-1.49655
-526.633,-617.332,-1.46286
-532.863,-607.753,-1.44017
-535.225,-594.382,-1.40848
-534.536,-578.396,-1.3706
-533.794,-563.154,-1.33448
-439.58,-1811.09,-4.39582
-444.184,-1663.69,-4.03805
-451.029,-1548.55,-3.75859
-458.673,-1453.65,-3.52826
-465.114,-1368.77,-3.32225
-470.327,-1291.84,-3.13552
-478.198,-1231.37,-2.98874
-485.614,-1176.91,-2.85656
-492.222,-1126.65,-2.73457
-493.689,-1070.53,-2.59836
-489.42,-1008.21,-2.4471
-490.646,-962.606,-2.33641
-497.813,-932.272,-2.26278
-505.412,-905.35,-2.19744
-506.144,-868.885,-2.10893
-511.649,-843.201,-2.04659
-518.111,-821.01,-1.99273
-521.684,-796.053,-1.93216
-522.056,-768.17,-1.86448
-523.322,-743.481,-1.80455
-525.496,-721.683,-1.75165
-526.432,-699.647,-1.69816
-527,-678.515,-1.64687
-528.494,-659.818,-1.60149
-530.055,-642.303,-1.55898
-531.091,-625.171,-1.5174
-533.657,-610.742,-1.48238
-539.27,-600.486,-1.45748
-539.922,-585.391,-1.42084
-539.206,-569.624,-1.38258
-538.452,-554.606,-1.34613
-537.641,-540.264,-1.31132
-444.461,-1786.75,-4.44463
-450.816,-1647.55,-4.09835
-455.56,-1526.14,-3.79634
-462.47,-1430.11,-3.55747
-471.912,-1355.07,-3.3708
-480.503,-1287.76,-3.20335
-486.926,-1223.41,-3.04329
-493.018,-1165.85,-2.90011
-499.624,-1115.83,-2.77568
-504.395,-1067.2,-2.65471
-501.137,-1007.29,-2.50568
-503.052,-962.991,-2.39548
-509.581,-931.148,-2.31627
-515.937,-901.772,-2.2432
-515.254,-863.055,-2.14689
-520.638,-837.19,-2.08255
-525.87,-813.078,-2.02257
-529.385,-788.198,-1.96068
-530.563,-761.74,-1.89486
-533.029,-738.891,-1.83803
-535.513,-717.59,-1.78504
-536.282,-695.439,-1.72994
-536.194,-673.595,-1.6756
-538.035,-655.426,-1.6304
-540.365,-638.904,-1.5893
-540.783,-621.13,-1.54509
-541.072,-604.199,-1.50297
-544.762,-591.878,-1.47233
-545.055,-576.612,-1.43435
-544.293,-561.042,-1.39562
-543.483,-546.202,-1.3587
-542.44,-531.856,-1.32302
-542.772,-519.511,-1.29231
-469.19,-1839.25,-4.69192
-460.395,-1640.7,-4.18542
-465.579,-1520.91,-3.87983
-475.869,-1434.94,-3.66053
-484.789,-1357.42,-3.46278
-492.437,-1286.91,-3.28291
-499.773,-1224.45,-3.12358
-505.761,-1166.23,-2.97506
-509.246,-1109.03,-2.82914
-513.333,-1059.09,-2.70175
-513.548,-1006.56,-2.56773
-515.77,-962.775,-2.45604
-522.1,-930.291,-2.37318
-523.277,-891.85,-2.27511
-523.559,-855.15,-2.18149
-525.633,-824.195,-2.10253
-528.057,-796.151,-2.03098
-531.013,-770.955,-1.96671
-534.668,-748.537,-1.90952
-543.451,-734.598,-1.87396
-545.75,-713.116,-1.81916
-545.826,-690.208,-1.76072
-545.615,-668.38,-1.70504
-547.562,-650.439,-1.65927
-550.793,-635.033,-1.61997
-551.121,-617.257,-1.57463
-549.865,-598.743,-1.5274
-550.488,-583.221,-1.4878
-550.417,-567.8,-1.44846
-549.594,-552.414,-1.40921
-548.355,-537.389,-1.37088
-548.074,-524.013,-1.33676
-548.218,-511.671,-1.30528
-460.227,-1953.44,-5.11367
-474.169,-1811.35,-4.74171
-474.549,-1648,-4.31409
-481.994,-1534.36,-4.01663
-491.858,-1445.32,-3.78352
-500.366,-1365.29,-3.57404
-507.525,-1292.51,-3.3835
-513.776,-1226.65,-3.2111
-519.169,-1166.61,-3.05393
-516.96,-1097.11,-2.872
-516.219,-1037.88,-2.71694
-513.076,-979.98,-2.56537
-511.809,-931.01,-2.43718
-515.973,-895.921,-2.34533
-515.458,-856.111,-2.24111
-517.778,-824.133,-2.1574
-522.363,-798.174,-2.08945
-525.335,-771.842,-2.02051
-527.299,-746.033,-1.95295
-529.578,-722.497,-1.89134
-532.101,-700.908,-1.83483
-539.747,-687.28,-1.79915
-547.857,-675.104,-1.76728
-555.022,-662.56,-1.73444
-557.336,-645.16,-1.68889
-559.885,-629.049,-1.64672
-559.226,-610.356,-1.59778
-557.571,-591.646,-1.5488
-556.11,-574.147,-1.50299
-555.974,-558.901,-1.46308
-554.753,-543.374,-1.42244
-553.486,-528.58,-1.38371
-553.621,-515.814,-1.35029
-553.79,-503.686,-1.31854
-577.466,-513.006,-1.34294
-447.963,-2083.06,-5.59958
-465.147,-1922.63,-5.16832
-479.377,-1783.3,-4.79379
-491.262,-1661.38,-4.46603
-498.672,-1545.9,-4.15561
-508.364,-1454.72,-3.9105
-516.685,-1372.92,-3.69061
-523.807,-1299.05,-3.49205
-529.905,-1232.04,-3.3119
-511.272,-1118.79,-3.00748
-510.28,-1054.59,-2.83488
-511.899,-1002.25,-2.6942
-510.062,-948.72,-2.5503
-512.926,-908.617,-2.4425
-513.104,-867.617,-2.33229
-515.839,-834.316,-2.24277
-519.562,-805.324,-2.16483
-524.649,-780.68,-2.09859
-527.524,-754.768,-2.02893
-527.293,-726.495,-1.95293
-528.933,-702.727,-1.88904
-531.555,-681.859,-1.83294
-537.865,-666.955,-1.79288
-544.987,-653.986,-1.75802
-551.666,-641.313,-1.72395
-564.375,-636.205,-1.71022
-566.108,-619.39,-1.66502
-564.972,-600.486,-1.6142
-563.922,-582.721,-1.56645
-562.671,-565.714,-1.52073
-561.38,-549.563,-1.47731
-560.018,-534.172,-1.43594
-559.549,-520.381,-1.39887
-559.641,-507.773,-1.36497
-559.674,-495.712,-1.33255
-559.654,-484.166,-1.30152
-594.651,-502.751,-1.35147
-458.156,-2073.19,-5.72699
-475.91,-1914.24,-5.28792
-489.686,-1772.68,-4.89687
-501.057,-1648.95,-4.55508
-512.466,-1545.96,-4.27056
-526.957,-1467.39,-4.05352
-528.447,-1366.43,-3.77462
-535.461,-1292.26,-3.56974
-504.437,-1141.3,-3.15272
-505.633,-1076.71,-2.9743
-511.371,-1028.43,-2.84094
-513.941,-979.199,-2.70495
-510.604,-924.198,-2.55301
-512.001,-882.596,-2.43809
-514.549,-846.671,-2.33885
-517.974,-815.25,-2.25205
-521.762,-786.995,-2.174
-526.65,-762.593,-2.10659
-528.071,-735.24,-2.03103
-527.681,-707.485,-1.95437
-531.078,-686.611,-1.8967
-534.724,-667.485,-1.84387
-541.69,-653.641,-1.80563
-550.164,-642.451,-1.77471
-558.134,-631.39,-1.74416
-566.707,-621.662,-1.71729
-572.516,-609.562,-1.68386
-570.997,-590.575,-1.63141
-569.699,-572.865,-1.58249
-568.344,-556.057,-1.53606
-567.058,-540.198,-1.49225
-565.649,-525.04,-1.45038
-565.846,-512.091,-1.41461
-565.817,-499.576,-1.38004
-564.125,-486.223,-1.34315
-566.388,-476.82,-1.31718
-596.565,-490.811,-1.35582
-600.544,-483.105,-1.33454
-468.011,-2059.28,-5.85018
-486.605,-1903.19,-5.40675
-502.044,-1767.22,-5.02045
-514.104,-1645.15,-4.67368
-524.751,-1539.29,-4.37293
-534.588,-1447.51,-4.11222
-545.951,-1372.69,-3.89965
-522.932,-1227.16,-3.48621
-501.729,-1103.81,-3.1358
-504.563,-1044.75,-2.96801
-510.1,-997.534,-2.83388
-513.482,-951.298,-2.70253
-511.262,-899.826,-2.5563
-514.46,-862.337,-2.4498
-517.277,-827.646,-2.35125
-519.717,-795.396,-2.25963
-523.127,-767.256,-2.17969
-527.359,-742.524,-2.10943
-528.018,-714.858,-2.03083
-529.348,-690.115,-1.96054
-534.859,-672.396,-1.9102
-538.748,-653.93,-1.85774
-545.929,-640.559,-1.81976
-555.057,-630.259,-1.7905
-563.872,-620.261,-1.76209
-571.781,-609.901,-1.73266
-579.722,-600.184,-1.70506
-579.755,-583.069,-1.65644
-577.396,-564.566,-1.60387
-574.995,-547.024,-1.55404
-572.984,-530.766,-1.50785
-572.054,-516.316,-1.4668
-569.416,-501.087,-1.42354
-567.138,-486.91,-1.38326
-564.609,-473.196,-1.3443
-575.179,-470.845,-1.33762
-590.902,-472.722,-1.34295
-603.961,-472.432,-1.34213
-479.132,-2048.32,-5.98919
-497.698,-1891.28,-5.53
-513.08,-1754.75,-5.13081
-525.048,-1632.44,-4.77317
-537.738,-1532.57,-4.48115
-547.769,-1441.07,-4.21361
-555.74,-1357.61,-3.96957
-523.062,-1192.59,-3.48707
-504.257,-1077.86,-3.1516
-504.214,-1014.37,-2.96596
-508.834,-966.791,-2.82685
-513.867,-924.966,-2.70456
-515.542,-881.581,-2.5777
-517.604,-842.96,-2.46477
-520.581,-809.27,-2.36627
-523.095,-777.823,-2.27432
-524.362,-747.219,-2.18483
-527.072,-721.037,-2.10828
-528.566,-695.27,-2.03294
-532.507,-674.511,-1.97224
-537.759,-656.836,-1.92056
-542.616,-639.915,-1.87108
-551.691,-628.929,-1.83896
-560.142,-617.965,-1.8069
-567.998,-607.049,-1.77499
-575.654,-596.588,-1.7444
-585.73,-589.177,-1.72273
-589.343,-575.874,-1.68383
-586.868,-557.526,-1.63018
-584.371,-540.149,-1.57937
-579.835,-521.852,-1.52587
-575.568,-504.73,-1.47581
-573.16,-490.052,-1.43289
-570.818,-476.146,-1.39223
-568.217,-462.692,-1.35289
-572.903,-455.659,-1.33233
-582.643,-452.873,-1.32418
-606.922,-461.262,-1.34871
-490.524,-2035.71,-6.13158
-507.513,-1872.18,-5.63905
-521.324,-1730.82,-5.21325
-532.932,-1608.5,-4.84484
-547.139,-1513.77,-4.5595
-559.413,-1428.67,-4.30317
-570.043,-1351.83,-4.07173
-523.951,-1159.69,-3.49299
-509.252,-1056.71,-3.18282
-505.326,-986.879,-2.9725
-509.987,-940.648,-2.83325
-513.783,-897.773,-2.70411
-517.921,-859.753,-2.58959
-521.361,-824.251,-2.48266
-523.886,-790.594,-2.38129
-527.155,-760.941,-2.29197
-529.259,-732.144,-2.20523
-529.28,-702.886,-2.11711
-531.565,-678.77,-2.04447
-535.918,-658.983,-1.98487
-539.888,-640.155,-1.92816
-544.137,-622.945,-1.87633
-553.459,-612.496,-1.84485
-562.712,-602.648,-1.81519
-570.627,-592.027,-1.7832
-581.201,-584.725,-1.76121
-592.114,-578.183,-1.7415
-598.638,-567.852,-1.71039
-594.053,-547.85,-1.65014
-589.457,-528.919,-1.59312
-584.857,-510.981,-1.53909
-580.258,-493.964,-1.48784
-577.111,-479.003,-1.44277
-576.366,-466.716,-1.40577
-576.896,-456.023,-1.37356
-577.369,-445.783,-1.34271
-586.036,-442.191,-1.3319
-590.059,-435.333,-1.31124
-486.836,-1959.55,-6.08548
-508.587,-1819.64,-5.65098
-526.984,-1696.91,-5.26985
-543.534,-1591.09,-4.94122
-558.615,-1498.97,-4.65512
-571.698,-1416.06,-4.39767
-583.048,-1341.02,-4.16462
-516.612,-1109,-3.44407
-510.699,-1027.79,-3.19186
-509.178,-964.449,-2.99515
-513.538,-918.667,-2.85298
-519.893,-881.087,-2.73627
-521.729,-839.988,-2.60863
-525.018,-805.032,-2.50008
-527.562,-772.163,-2.398
-529.169,-740.839,-2.30072
-530.583,-711.867,-2.21075
-533.733,-687.45,-2.13492
-535.807,-663.579,-2.06079
-539.433,-643.326,-1.99789
-543.065,-624.527,-1.93951
-546.068,-606.326,-1.88299
-554.368,-595.023,-1.84788
-563.105,-584.904,-1.81646
-573.539,-577.125,-1.7923
-585.812,-571.612,-1.77518
-596.984,-565.38,-1.75583
-606.996,-558.437,-1.73427
-602.212,-538.646,-1.6728
-597.273,-519.79,-1.61424
-592.342,-501.933,-1.55879
-587.607,-485.153,-1.50668
-584.349,-470.402,-1.46087
-584.883,-459.348,-1.42654
-585.325,-448.75,-1.39363
-585.7,-438.595,-1.36209
-585.342,-428.364,-1.33032
-593.52,-424.697,-1.31893
-598.241,-418.769,-1.30052
-490.447,-1912.77,-6.13061
-512.557,-1776.89,-5.69509
-531.279,-1657.61,-5.31279
-553.219,-1569.15,-5.02926
-571.524,-1485.98,-4.76269
-585.099,-1404.25,-4.50075
-596.934,-1330.32,-4.2638
-510.336,-1061.51,-3.40223
-510.231,-994.958,-3.18893
-513.096,-941.687,-3.0182
-518.638,-898.978,-2.88131
-520.048,-853.978,-2.73708
-525.476,-819.747,-2.62737
-530.328,-787.919,-2.52536
-533.334,-756.368,-2.42423
-534.401,-724.93,-2.32347
-536.212,-697.078,-2.23421
-540.354,-674.364,-2.1614
-542.418,-650.904,-2.08621
-543.831,-628.429,-2.01418
-547.414,-609.978,-1.95504
-550.514,-592.278,-1.89831
-556.627,-578.894,-1.85541
-564.529,-568.172,-1.82105
-573.333,-559.001,-1.79166
-588.244,-556.159,-1.78255
-602.988,-553.331,-1.77348
-612.924,-546.379,-1.7512
-611.078,-529.602,-1.69743
-606.194,-511.17,-1.63835
-601.411,-493.791,-1.58265
-596.653,-477.323,-1.52987
-591.849,-461.642,-1.47961
-592.193,-450.645,-1.44437
-592.402,-440.071,-1.41047
-591.745,-429.359,-1.37614
-591.058,-419.114,-1.34331
-590.323,-409.291,-1.31182
-604.278,-409.858,-1.31364
-498.818,-1883.07,-6.23525
-518.731,-1740.65,-5.76368
-539.229,-1628.49,-5.39229
-561.399,-1541.31,-5.10363
-580.8,-1461.69,-4.83999
-597.826,-1388.81,-4.59865
-609.531,-1314.86,-4.35378
-512.976,-1032.8,-3.41982
-515.141,-972.336,-3.21962
-520.68,-924.979,-3.06281
-525.535,-881.736,-2.91962
-527.083,-837.789,-2.7741
-533.627,-805.781,-2.66812
-537.665,-773.218,-2.5603
-541.089,-742.77,-2.45948
-542.779,-712.696,-2.3599
-543.832,-684.325,-2.26595
-547.353,-661.205,-2.1894
-549.194,-637.912,-2.11227
-549.153,-614.24,-2.03389
-553.403,-596.886,-1.97643
-557.048,-580.1,-1.92085
-562.398,-566.148,-1.87465
-568.457,-553.789,-1.83372
-575.802,-543.414,-1.79937
-591.364,-541.189,-1.792
-605.973,-538.248,-1.78227
-617.17,-532.53,-1.76333
-621.776,-521.602,-1.72715
-616.504,-503.202,-1.66622
-611.254,-485.787,-1.60856
-606.077,-469.322,-1.55404
-601.186,-453.896,-1.50296
-599.623,-441.674,-1.46249
-598.847,-430.6,-1.42582
-598.025,-420.009,-1.39075
-597.151,-409.863,-1.35715
-596.247,-400.148,-1.32499
-612.641,-402.213,-1.33182
-619.865,-398.297,-1.31886
-505.977,-2110.69,-7.22828
-519.519,-1896.27,-6.494
-533.716,-1731.64,-5.93019
-552.958,-1614.66,-5.52957
-573.812,-1523.23,-5.21646
-591.956,-1440.44,-4.93295
-607.783,-1365.19,-4.67523
-529.758,-1104.93,-3.78397
-518.614,-1009.58,-3.45741
-519.272,-947.677,-3.24543
-527.791,-906.565,-3.10464
-533.319,-865.167,-2.96287
-536.618,-824.701,-2.82429
-542.41,-791.922,-2.71203
-546.163,-759.43,-2.60076
-548.641,-728.199,-2.4938
-551.128,-699.695,-2.39619
-550.584,-669.879,-2.29408
-551.281,-643.899,-2.20511
-554.196,-622.407,-2.13151
-559.516,-605.108,-2.07227
-569.402,-593.807,-2.03357
-571.638,-575.582,-1.97116
-576.56,-561.186,-1.92185
-578.45,-544.864,-1.86596
-583.449,-532.399,-1.82327
-593.931,-525.54,-1.79978
-609.157,-523.159,-1.79163
-620.682,-517.827,-1.77337
-631.011,-511.821,-1.7528
-628.233,-495.796,-1.69792
-623.281,-478.943,-1.6402
-617.922,-462.65,-1.58441
-612.572,-447.178,-1.53142
-611.242,-435.324,-1.49083
-610.309,-424.31,-1.45311
-609.32,-413.771,-1.41702
-608.374,-403.739,-1.38266
-610.08,-395.874,-1.35573
-620.062,-393.605,-1.34796
-629.744,-391.245,-1.33988
-517.115,-2083.27,-7.38739
-537.237,-1893.79,-6.71547
-550.62,-1725.3,-6.118
-569.035,-1604.7,-5.69034
-589.862,-1512.21,-5.36237
-607.836,-1428.43,-5.06528
-623.387,-1352.28,-4.79526
-542.563,-1092.89,-3.87543
-542.461,-1019.83,-3.61639
-546.973,-964.046,-3.41856
-539.933,-895.658,-3.17605
-541.714,-848.691,-3.0095
-548.027,-813.391,-2.88433
-552.273,-778.708,-2.76135
-552.542,-741.988,-2.63113
-555.586,-712.163,-2.52537
-561.348,-688.264,-2.44063
-564.952,-663.82,-2.35395
-568.84,-641.654,-2.27535
-571.494,-619.853,-2.19804
-573.814,-599.318,-2.12522
-575.972,-580.087,-2.05703
-578.717,-562.754,-1.99556
-583.777,-548.751,-1.94591
-588.473,-535.322,-1.89829
-594.097,-523.549,-1.85654
-602.244,-514.646,-1.82497
-613.434,-508.791,-1.80421
-625.433,-503.921,-1.78694
-640.413,-501.658,-1.77892
-637.513,-485.889,-1.723
-634.587,-470.931,-1.66996
-630.024,-455.556,-1.61544
-625.41,-440.915,-1.56352
-624.323,-429.413,-1.52273
-623.418,-418.581,-1.48432
-623.002,-408.573,-1.44883
-622.53,-398.986,-1.41483
-624.765,-391.52,-1.38836
-629.158,-385.701,-1.36773
-638.302,-382.981,-1.35808
-533.035,-2071.26,-7.61481
-557.149,-1894.34,-6.96437
-576.686,-1742.9,-6.40761
-588.996,-1602.09,-5.88994
-607.527,-1502.27,-5.52295
-624.135,-1414.72,-5.2011
-639.532,-1338.11,-4.91945
-568.268,-1104.07,-4.05903
-556.366,-1008.88,-3.70908
-557.047,-946.987,-3.48152
-562.026,-899.246,-3.30601
-566.614,-856.222,-3.14783
-568.48,-813.828,-2.99198
-567.648,-772.005,-2.83822
-559.854,-725.147,-2.66595
-560.964,-693.558,-2.54981
-571.863,-676.293,-2.48634
-579.34,-656.587,-2.4139
-585.07,-636.558,-2.34026
-587.357,-614.467,-2.25905
-589.964,-594.336,-2.18504
-591.254,-574.363,-2.11161
-592.866,-556.069,-2.04435
-595.587,-540,-1.98528
-596.895,-523.728,-1.92545
-605.069,-514.31,-1.89083
-613.408,-505.597,-1.8588
-621.976,-497.582,-1.82933
-632.389,-491.457,-1.80681
-647.635,-489.325,-1.79897
-646.985,-475.622,-1.7486
-644.618,-461.411,-1.69635
-641.274,-447.248,-1.64428
-638.93,-434.472,-1.59732
-637.51,-422.934,-1.55489
-636.052,-411.919,-1.5144
-634.055,-401.077,-1.47454
-632.268,-390.857,-1.43697
-632.168,-382.11,-1.40481
-640.222,-378.566,-1.39178
-647.305,-374.611,-1.37724
-594.934,-1948.44,-7.43667
-611.493,-1780.15,-6.79435
-623.014,-1632.32,-6.23011
-633.592,-1509.12,-5.75989
-649.033,-1417.07,-5.40857
-662.155,-1334.51,-5.09346
-601.783,-1126.2,-4.29842
-575.353,-1004.96,-3.83566
-578.451,-947.219,-3.61529
-581.144,-895.65,-3.41847
-585.253,-851.873,-3.25138
-587.67,-810.37,-3.09298
-587.715,-769.91,-2.93855
-558.36,-696.624,-2.65884
-565.36,-673.295,-2.5698
-574.608,-654.556,-2.49828
-592.953,-647.309,-2.47062
-596.838,-625.488,-2.38733
-600.425,-605.045,-2.30931
-601.448,-583.629,-2.22757
-604.132,-565.296,-2.1576
-609.188,-550.371,-2.10063
-611.124,-533.716,-2.03706
-615.099,-519.859,-1.98418
-615.143,-503.649,-1.92231
-623.138,-494.734,-1.88828
-631.96,-486.981,-1.85869
-640.481,-479.447,-1.82993
-657.15,-478.259,-1.8254
-657.811,-465.802,-1.77786
-653.389,-450.495,-1.71943
-652.025,-438.027,-1.67185
-649.482,-425.411,-1.6237
-647.412,-413.712,-1.57905
-645.335,-402.566,-1.5365
-643.273,-391.948,-1.49598
-641.218,-381.816,-1.45731
-639.813,-372.514,-1.4218
-643.979,-366.788,-1.39995
-647.817,-361.123,-1.37833
-651.332,-355.519,-1.35694
-641.795,-1797.05,-7.13103
-653.83,-1647.67,-6.53827
-663.932,-1521.02,-6.0357
-673.587,-1414.55,-5.61318
-683.56,-1325.07,-5.25811
-690.421,-1242.77,-4.93154
-604.765,-1016.01,-4.03173
-602.075,-948.275,-3.76294
-595.102,-882.157,-3.50057
-596.444,-835.026,-3.31355
-593.752,-787.507,-3.12498
-571.78,-720.446,-2.85887
-565.755,-678.909,-2.69405
-570.672,-653.681,-2.59394
-580.492,-636.02,-2.52386
-596.094,-625.9,-2.4837
-603.486,-608.316,-2.41393
-607.162,-588.482,-2.33522
-610.318,-569.632,-2.26042
-612.887,-551.6,-2.18887
-616.172,-535.433,-2.12471
-620.597,-521.302,-2.06864
-626.297,-509.12,-2.0203
-629.342,-495.607,-1.96668
-631.275,-482.065,-1.91294
-637.235,-472.304,-1.87421
-647.85,-466.453,-1.85099
-664.144,-464.901,-1.84483
-669.711,-456.128,-1.81002
-664.142,-440.431,-1.74773
-659.974,-426.445,-1.69223
-659.269,-415.34,-1.64816
-658.148,-404.52,-1.60523
-655.789,-393.473,-1.56139
-653.455,-382.955,-1.51965
-651.106,-372.906,-1.47978
-650.743,-364.416,-1.44609
-653.176,-357.827,-1.41994
-653.681,-350.484,-1.3908
-654.079,-343.391,-1.36266
-654.574,-1980.12,-8.18215
-663.477,-1784.04,-7.37193
-675.685,-1635.18,-6.7568
-685.07,-1507.17,-6.22786
-692.27,-1396.09,-5.76887
-702.821,-1308.34,-5.40627
-638.78,-1104.19,-4.56267
-623.262,-1005.54,-4.15504
-611.567,-925.001,-3.82225
-607.85,-865.297,-3.57555
-605.605,-814.206,-3.36444
-600.962,-765.439,-3.16293
-571.528,-691.551,-2.85761
-569.411,-656.181,-2.71145
-575.014,-632.518,-2.61368
-586.214,-616.801,-2.54873
-598.451,-603.44,-2.49352
-608.491,-589.021,-2.43394
-614.673,-572.12,-2.36411
-618.805,-554.634,-2.29185
-622.527,-538.042,-2.22329
-625.902,-522.305,-2.15826
-629.835,-508.068,-2.09943
-634.083,-494.994,-2.04541
-636.349,-481.24,-1.98858
-638.799,-468.453,-1.93574
-642.693,-457.447,-1.89026
-652.315,-451.029,-1.86374
-679.06,-444.142,-1.83528
-675.4,-430.123,-1.77736
-669.481,-415.422,-1.71661
-667.1,-403.596,-1.66774
-666.267,-393.26,-1.62503
-665.374,-383.382,-1.58421
-663.969,-373.676,-1.54411
-661.26,-363.693,-1.50286
-662.062,-356.042,-1.47124
-664.935,-349.814,-1.4455
-665.818,-342.825,-1.41663
-666.151,-335.851,-1.38781
-706.209,-2340.62,-10.0887
-694.621,-2014.43,-8.68272
-690.933,-1781.1,-7.67698
-698.696,-1621,-6.98691
-704.049,-1484.92,-6.40039
-707.705,-1368.24,-5.89748
-718.525,-1282.3,-5.52706
-638.395,-1057.92,-4.55991
-631.672,-976.992,-4.2111
-626.17,-907.953,-3.91352
-620.433,-846.714,-3.64957
-613.731,-791.036,-3.40958
-606.076,-740.054,-3.18984
-569.537,-660.666,-2.84766
-572.269,-632.223,-2.72506
-580.034,-611.675,-2.63649
-592.492,-597.646,-2.57603
-604.305,-584.163,-2.51791
-614.371,-570.138,-2.45746
-620.834,-553.977,-2.3878
-626.707,-538.505,-2.32111
-631.79,-523.484,-2.25637
-635.672,-508.538,-2.19195
-639.136,-494.266,-2.13043
-641.313,-479.951,-2.06873
-643.731,-466.705,-2.01164
-645.437,-453.762,-1.95585
-649.355,-443.09,-1.90985
-658.046,-436.191,-1.88012
-688.861,-431.935,-1.86177
-688.581,-420.397,-1.81204
-681.981,-405.691,-1.74866
-682.549,-395.878,-1.70636
-680.37,-384.99,-1.65943
-677.929,-374.475,-1.61411
-675.489,-364.45,-1.5709
-672.937,-354.821,-1.52939
-673.156,-347.049,-1.49589
-676.075,-340.977,-1.46972
-677.89,-334.618,-1.44231
-750.262,-2082.01,-9.37822
-721.24,-1779.08,-8.01371
-728.535,-1617.37,-7.28528
-732.357,-1478.05,-6.65772
-734.461,-1358.76,-6.12044
-742.201,-1267.46,-5.70917
-643.402,-1020.26,-4.59567
-639.652,-946.691,-4.26429
-637.723,-884.846,-3.98572
-631.232,-824.319,-3.71309
-625.174,-771.052,-3.47315
-603.902,-705.615,-3.17839
-575.248,-638.527,-2.8762
-578.338,-611.388,-2.75396
-586.009,-591.338,-2.66365
-597.294,-576.521,-2.5969
-612.703,-566.751,-2.5529
-622.074,-552.403,-2.48827
-628.618,-536.745,-2.41774
-635.414,-522.452,-2.35336
-641.007,-508.227,-2.28929
-643.958,-492.962,-2.22052
-646.687,-478.549,-2.1556
-648.341,-464.296,-2.0914
-650.79,-451.486,-2.0337
-652.726,-439.107,-1.97794
-656.682,-428.775,-1.9314
-666.79,-422.935,-1.9051
-700.009,-420.006,-1.8919
-698.945,-408.331,-1.83932
-696.237,-396.32,-1.78521
-695.234,-385.855,-1.73807
-695.526,-376.602,-1.69639
-692.614,-366.096,-1.64907
-689.321,-355.882,-1.60306
-686.059,-346.148,-1.55922
-682.311,-336.607,-1.51624
-684.957,-330.566,-1.48903
-689.096,-325.488,-1.46615
-758.422,-1786.53,-8.42682
-774.05,-1641,-7.74041
-779.657,-1502.63,-7.0877
-778.32,-1375.04,-6.48592
-773.236,-1260.98,-5.94789
-654.551,-991.184,-4.6753
-646.491,-913.714,-4.30988
-645.578,-855.396,-4.03481
-642.892,-801.728,-3.78167
-634.286,-747.052,-3.52377
-588.139,-656.242,-3.09543
-579.645,-614.426,-2.89819
-582.855,-588.408,-2.77546
-591.977,-570.452,-2.69077
-604.041,-556.77,-2.62624
-618.613,-546.443,-2.57753
-633.845,-537.502,-2.53535
-635.405,-518.1,-2.44384
-642.886,-504.785,-2.38103
-648.364,-490.905,-2.31556
-650.559,-475.581,-2.24328
-653.428,-461.756,-2.17807
-654.378,-447.511,-2.11088
-659.533,-436.941,-2.06102
-660.687,-424.442,-2.00207
-668.536,-416.852,-1.96627
-680.604,-412.252,-1.94457
-716.436,-410.498,-1.9363
-714.96,-398.872,-1.88146
-714.064,-388.158,-1.83092
-712.678,-377.719,-1.78168
-711.13,-367.706,-1.73445
-709.145,-357.949,-1.68843
-702.727,-346.46,-1.63424
-699.147,-336.862,-1.58896
-695.347,-327.586,-1.54521
-692.207,-319.017,-1.50479
-699.245,-315.404,-1.48775
-801.52,-1798.99,-8.90567
-815.22,-1646.76,-8.15209
-825.281,-1515.53,-7.50245
-820.545,-1381.26,-6.83777
-818.821,-1272.33,-6.29853
-666.716,-961.982,-4.76218
-649.926,-875.239,-4.33278
-645.939,-815.502,-4.03706
-642.952,-763.982,-3.78201
-644.342,-723.098,-3.57963
-593.675,-631.173,-3.12456
-584.277,-590.122,-2.92135
-590.959,-568.448,-2.81405
-600.487,-551.358,-2.72945
-615.208,-540.315,-2.67479
-627.288,-527.968,-2.61367
-640.384,-517.431,-2.56151
-648.716,-504.003,-2.49503
-649.891,-486.215,-2.40698
-651.546,-470.045,-2.32693
-653.51,-455.204,-2.25346
-657.029,-442.4,-2.19007
-660.228,-430.214,-2.12975
-665.082,-419.833,-2.07836
-670.028,-410.139,-2.03037
-679.721,-403.835,-1.99916
-694.467,-400.807,-1.98418
-732.586,-399.952,-1.97995
-727.985,-386.982,-1.91574
-726.819,-376.455,-1.86362
-724.637,-365.942,-1.81158
-722.297,-355.863,-1.76169
-721.803,-347.153,-1.71857
-718.552,-337.552,-1.67104
-712.97,-327.318,-1.62038
-709.18,-318.343,-1.57595
-705.092,-309.627,-1.5328
-847.222,-1807.43,-9.41344
-855.685,-1642.93,-8.55671
-862.217,-1504.97,-7.8382
-866.174,-1385.89,-7.21799
-855.952,-1264.19,-6.58414
-698.543,-958.008,-4.98951
-656.844,-840.766,-4.37889
-651.903,-782.288,-4.07433
-649.942,-734.055,-3.82313
-650.775,-694.163,-3.61536
-608.869,-615.28,-3.20453
-603.298,-579.168,-3.01644
-606.886,-554.869,-2.88989
-614.927,-536.665,-2.79509
-626.041,-522.609,-2.72188
-640.49,-512.393,-2.66868
-650.963,-499.941,-2.60382
-659.502,-487.017,-2.53652
-658.907,-468.557,-2.44037
-660.882,-453.177,-2.36027
-662.36,-438.528,-2.28398
-665.858,-426.149,-2.2195
-668.203,-413.855,-2.15547
-674.037,-404.422,-2.10635
-682.65,-397.178,-2.06862
-693.193,-391.45,-2.03878
-703.483,-385.911,-2.00994
-744.11,-386.133,-2.01109
-740.994,-374.396,-1.94997
-753.549,-370.978,-1.93216
-750.967,-360.464,-1.8774
-746.442,-349.553,-1.82058
-739.454,-338.036,-1.76059
-732.524,-327.08,-1.70353
-726.467,-317.003,-1.65105
-722.579,-308.3,-1.60572
-723.095,-301.813,-1.57194
-905.376,-1647.8,-9.05359
-900.725,-1490.3,-8.18825
-901.457,-1367.22,-7.512
-909.169,-1272.85,-6.99347
-915.085,-1189.62,-6.5362
-666.479,-808.666,-4.44311
-662.54,-753.643,-4.1408
-661.443,-708.136,-3.89077
-664.869,-672.259,-3.69365
-659.204,-631.45,-3.46944
-656.684,-597.584,-3.28337
-641.035,-555.565,-3.0525
-653.29,-540.45,-2.96946
-655.964,-519.068,-2.85198
-660.617,-500.969,-2.75253
-662.36,-482.199,-2.64941
-669.243,-468.47,-2.57398
-668.73,-450.774,-2.47675
-670.391,-435.754,-2.39422
-671.54,-421.449,-2.31563
-674.167,-408.995,-2.2472
-677.818,-397.945,-2.18649
-686.462,-390.425,-2.14517
-695.852,-383.773,-2.10862
-705.805,-377.813,-2.07588
-714.185,-371.376,-2.04051
-745.466,-376.874,-2.07072
-759.658,-373.669,-2.05311
-771.185,-369.357,-2.02942
-774.069,-361.232,-1.98478
-768.348,-349.598,-1.92086
-759.859,-337.303,-1.8533
-751.542,-325.668,-1.78937
-744.505,-315.116,-1.7314
-741.774,-306.824,-1.68584
-737.898,-298.438,-1.63976
-734.096,-290.446,-1.59585
-952.015,-1637.48,-9.51994
-949.092,-1484.05,-8.62792
-948.017,-1358.84,-7.89997
-946.221,-1251.93,-7.27847
-951.232,-1168.66,-6.79438
-686.433,-787.114,-4.57613
-677.306,-728.107,-4.23308
-674.785,-682.727,-3.96925
-667.643,-637.972,-3.70906
-662.828,-600.036,-3.48851
-660.14,-567.722,-3.30064
-659.729,-540.35,-3.14151
-659.651,-515.728,-2.99837
-664.019,-496.572,-2.887
-666.655,-477.77,-2.77769
-671.985,-462.326,-2.6879
-675.963,-447.176,-2.59982
-679.169,-432.656,-2.51541
-681.305,-418.516,-2.4332
-682.949,-405.06,-2.35497
-686.711,-393.714,-2.28901
-691.369,-383.598,-2.2302
-699.386,-375.92,-2.18556
-708.976,-369.527,-2.14839
-718.199,-363.324,-2.11233
-728.332,-357.923,-2.08093
-752.926,-359.731,-2.09144
-782.559,-354.21,-2.05935
-782.249,-344.992,-2.00575
-784.237,-337.222,-1.96058
-775.361,-325.273,-1.89111
-766.676,-313.971,-1.82541
-759.378,-303.751,-1.76598
-754.599,-294.979,-1.71499
-749.895,-286.626,-1.66642
-1025.76,-1510.67,-9.32483
-1010.87,-1364.68,-8.42371
-989.45,-1233.02,-7.61097
-990.853,-1146.57,-7.07736
-708.527,-765.212,-4.72341
-694.26,-702.941,-4.33903
-690.25,-657.77,-4.06021
-681.388,-613.251,-3.78541
-672.86,-573.703,-3.5413
-668.573,-541.545,-3.3428
-663.699,-511.998,-3.16042
-669.264,-492.822,-3.04206
-673.198,-474.166,-2.9269
-677.325,-457.195,-2.82215
-682.891,-442.513,-2.73152
-689.139,-429.387,-2.6505
-692.522,-415.513,-2.56486
-693.947,-401.498,-2.47835
-696.375,-389.009,-2.40127
-700.484,-378.261,-2.33492
-706.053,-368.969,-2.27756
-714.528,-361.729,-2.23288
-723.994,-355.415,-2.1939
-733.066,-349.284,-2.15605
-742.478,-343.661,-2.12135
-764.992,-344.246,-2.12496
-790.062,-345.918,-2.13528
-790.986,-337.209,-2.08153
-806.965,-335.2,-2.06912
-799.333,-323.729,-1.99832
-791.245,-312.638,-1.92985
-782.221,-301.713,-1.86242
-776.458,-292.525,-1.8057
-772.286,-284.341,-1.75518
-770.109,-277.239,-1.71134
-1060.85,-1240.39,-8.1602
-1032.41,-1120.91,-7.37417
-746.25,-756.203,-4.97488
-715.906,-680.113,-4.47431
-710.221,-635.023,-4.17768
-697.457,-588.965,-3.87468
-689.153,-551.323,-3.62705
-684.649,-520.334,-3.42318
-681.543,-493.308,-3.24538
-686.275,-474.154,-3.11938
-687.748,-454.512,-2.99016
-691.87,-438.184,-2.88274
-695.111,-422.628,-2.7804
-703.553,-411.308,-2.70593
-707.071,-398.055,-2.61875
-708.437,-384.58,-2.5301
-710.628,-372.467,-2.45041
-715.22,-362.378,-2.38404
-720.136,-353.099,-2.32299
-728.486,-346.03,-2.27649
-737.585,-339.735,-2.23508
-747.735,-334.281,-2.1992
-757.233,-328.855,-2.1635
-778.484,-328.693,-2.16244
-836.609,-343.687,-2.26108
-829.378,-331.751,-2.18256
-822.106,-320.41,-2.10795
-813.535,-309.142,-2.03382
-805.839,-298.749,-1.96544
-800.544,-289.72,-1.90604
-797.401,-281.871,-1.85441
-794.232,-274.37,-1.80506
-776.447,-735.039,-5.17618
-740.549,-657.24,-4.62832
-729.294,-609.177,-4.28986
-726.83,-573.389,-4.03785
-721.94,-539.556,-3.7996
-715.882,-508.277,-3.57934
-714.771,-483.322,-3.40361
-714.664,-461.283,-3.24841
-715.924,-442.006,-3.11266
-716.984,-424.215,-2.98738
-718.986,-408.384,-2.8759
-720.227,-393.354,-2.77006
-722.344,-379.899,-2.67531
-722.27,-366.293,-2.5795
-726.673,-355.819,-2.50574
-730.121,-345.59,-2.43371
-735.164,-336.752,-2.37147
-742.52,-329.492,-2.32035
-752.635,-323.86,-2.28069
-762.333,-318.385,-2.24213
-772.836,-313.55,-2.20808
-790.805,-311.928,-2.19666
-838.895,-305.443,-2.15099
-830.717,-294.904,-2.07678
-826.262,-286.168,-2.01526
-821.847,-277.862,-1.95676
-865.773,-761.883,-5.77165
-767.167,-632.914,-4.79466
-756.317,-587.259,-4.44881
-753.824,-552.805,-4.18781
-749.563,-520.749,-3.94498
-729.311,-481.346,-3.64648
-723.776,-454.945,-3.44648
-723.724,-434.234,-3.28959
-726.678,-417.05,-3.15941
-730.979,-402.038,-3.04569
-740.652,-391.064,-2.96256
-742.748,-377.087,-2.85668
-740.63,-362.085,-2.74303
-740.358,-349.025,-2.6441
-743.096,-338.236,-2.56236
-745.372,-327.963,-2.48454
-751.004,-319.781,-2.42256
-758.192,-312.753,-2.36932
-768.139,-307.255,-2.32767
-778.164,-302.11,-2.28869
-790.248,-298.036,-2.25783
-808.465,-296.436,-2.24571
-860.143,-291.124,-2.20547
-856.101,-282.512,-2.14024
-851.746,-274.22,-2.07741
-797.98,-608.461,-4.98723
-786.902,-564.719,-4.62871
-771.898,-523.176,-4.28821
-744.426,-478,-3.91794
-740.471,-451.687,-3.70227
-736.734,-428.007,-3.50818
-737.712,-409.095,-3.35317
-737.23,-391.052,-3.20529
-739.26,-375.79,-3.08019
-748.008,-365.027,-2.99198
-751.494,-352.623,-2.89031
-759.108,-343.004,-2.81147
-758.944,-330.682,-2.71047
-761.043,-320.162,-2.62425
-762.01,-309.883,-2.54
-769.194,-302.714,-2.48124
-776.237,-295.939,-2.42571
-782.735,-289.374,-2.3719
-791.901,-284.152,-2.3291
-806.534,-281.134,-2.30436
-879.421,-275.1,-2.2549
-873.688,-266.474,-2.1842
-867.977,-258.275,-2.117
-825.476,-577.834,-5.15906
-813.084,-535.679,-4.78271
-796.086,-495.342,-4.42258
-773.56,-455.993,-4.07126
-757.786,-424.36,-3.78884
-751.231,-400.656,-3.57721
-752.702,-383.193,-3.4213
-757.442,-368.84,-3.29316
-758.892,-354.149,-3.16199
-766.114,-343.218,-3.0644
-772.106,-332.599,-2.96959
-775.797,-321.811,-2.87328
-778.603,-311.44,-2.78068
-779.673,-301.114,-2.68849
-780.793,-291.495,-2.60261
-786.239,-284.059,-2.53622
-791.261,-276.94,-2.47266
-800.48,-271.677,-2.42567
-808.386,-266.29,-2.37758
-826.338,-264.427,-2.36094
-880.946,-274.071,-2.44705
-898.643,-251.619,-2.24659
-859.665,-548.036,-5.37272
-834.189,-500.513,-4.90684
-820.363,-464.872,-4.55744
-793.537,-426.003,-4.1764
-781.297,-398.461,-3.90639
-773.658,-375.776,-3.684
-771.995,-357.924,-3.50899
-774.775,-343.595,-3.36852
-777.533,-330.45,-3.23966
-781.872,-319.003,-3.12743
-790.171,-309.989,-3.03907
-794.888,-300.29,-2.94398
-795.451,-289.77,-2.84085
-797.174,-280.384,-2.74884
-798.664,-271.544,-2.66218
-803.053,-264.229,-2.59046
-806.635,-257.114,-2.5207
-814.522,-251.76,-2.46822
-830.692,-249.206,-2.44319
-888.501,-251.74,-2.46803
-886.103,-509.509,-5.53795
-853.527,-461.908,-5.02058
-824.549,-421.435,-4.58069
-812.587,-393.462,-4.27665
-801.745,-368.802,-4.00862
-795.954,-348.702,-3.79017
-793.877,-331.983,-3.60845
-794.455,-317.781,-3.45408
-796.948,-305.495,-3.32055
-798.826,-293.967,-3.19525
-802.398,-283.924,-3.08609
-809.189,-275.722,-2.99695
-810.283,-266.234,-2.89382
-813.587,-258.102,-2.80543
-816.455,-250.378,-2.72148
-819.668,-243.255,-2.64406
-823.04,-236.622,-2.57197
-834.63,-232.683,-2.52915
-842.234,-227.897,-2.47713
-898.309,-236.125,-2.56657
-899.38,-229.84,-2.49825
-957.236,-490.582,-5.9825
-867.946,-418.655,-5.10538
-839.807,-382.577,-4.66545
-827.148,-356.978,-4.35328
-822.849,-337.367,-4.11413
-822.122,-321.017,-3.91477
-817.95,-304.87,-3.71787
-811.875,-289.449,-3.52981
-810.427,-276.894,-3.37671
-813.865,-266.946,-3.25539
-816.71,-257.576,-3.14114
-822.941,-249.928,-3.04788
-828.146,-242.526,-2.95761
-831.861,-235.214,-2.86844
-837.008,-228.78,-2.78999
-842.128,-222.755,-2.71651
-846.955,-217.03,-2.6467
-871.88,-216.647,-2.64203
-906.515,-218.628,-2.66619
-907.038,-212.504,-2.59151
-936.516,-396.64,-5.50871
-869.491,-347.794,-4.83034
-856.611,-324.608,-4.50834
-848.19,-305.346,-4.24083
-843.398,-289.163,-4.01608
-838.129,-274.295,-3.80959
-834.415,-261.206,-3.62781
-831.777,-249.531,-3.46566
-832.512,-239.761,-3.32998
-835.632,-231.404,-3.21391
-839.527,-223.872,-3.1093
-846.905,-217.773,-3.02461
-855.837,-212.482,-2.95112
-860.611,-206.545,-2.86866
-870.955,-202.284,-2.80949
-901.086,-202.742,-2.81586
-899.201,-196.187,-2.72482
-913.334,-187.884,-2.6095
-907.616,-296.167,-4.77677
-894.153,-277.185,-4.47063
-885.627,-261.468,-4.21716
-880.413,-248.114,-4.00178
-871.026,-234.796,-3.78698
-864.155,-223.238,-3.60057
-861.686,-213.696,-3.44668
-863.076,-205.808,-3.31946
-870.169,-199.814,-3.22279
-884.871,-195.933,-3.1602
-897.525,-191.882,-3.09487
-962.996,-227.614,-4.37714
-950.457,-214.883,-4.13232
-938.211,-203.276,-3.90913
-936.92,-194.876,-3.7476
-939.466,-187.89,-3.61326
-1066.42,-194.734,-4.63651
-1050.76,-183.88,-4.37809
-1037.33,-174.267,-4.14923
-1026.74,-165.855,-3.94893
-1080.75,-144.096,-4.50303
-1066.98,-136.569,-4.26781
